ply
format ascii 1.0
comment ---
element vertex 1666
property float x
property float y
property float z
element face 0
property list uchar uint vertex_indices
end_header
-0.767936 1.053069 -0.398988
-0.763689 1.057600 -0.400462
-0.759404 1.062095 -0.401925
-0.754623 1.065641 -0.403152
-0.750666 1.070850 -0.404782
-0.746445 1.075576 -0.406290
-0.741871 1.079616 -0.407626
-0.737334 1.083757 -0.408982
-0.733066 1.088488 -0.410477
-0.729237 1.094196 -0.412209
-0.724256 1.097486 -0.413341
-0.719287 1.100810 -0.414475
-0.714565 1.104686 -0.415741
-0.711146 1.111502 -0.417726
-0.706138 1.114814 -0.418842
-0.701981 1.120093 -0.420438
-0.697280 1.124170 -0.421731
-0.693037 1.129361 -0.423296
-0.688524 1.133970 -0.424711
-0.684501 1.139816 -0.426428
-0.678904 1.141885 -0.427202
-0.673943 1.145522 -0.428359
-0.669974 1.151689 -0.430141
-0.667034 1.160589 -0.432600
-0.663556 1.168277 -0.434753
-0.658235 1.171266 -0.435729
-0.652002 1.171839 -0.436097
-0.648517 1.179799 -0.438305
-0.644740 1.187124 -0.440350
-0.640038 1.192025 -0.441785
-0.635216 1.196667 -0.443151
-0.630388 1.201366 -0.444526
-0.626407 1.208619 -0.446538
-0.621545 1.213425 -0.447932
-0.616898 1.218965 -0.449506
-0.611960 1.223731 -0.450882
-0.606072 1.225643 -0.451535
-0.601207 1.230785 -0.452997
-0.597181 1.238729 -0.455160
-0.592938 1.246176 -0.457195
-0.587572 1.250088 -0.458337
-0.584293 1.261128 -0.461270
-0.579346 1.266768 -0.462840
-0.573011 1.267702 -0.463220
-0.567408 1.271214 -0.464246
-0.562662 1.277910 -0.466072
-0.557932 1.284864 -0.467961
-0.553406 1.292794 -0.470093
-0.548290 1.298712 -0.471714
-0.543469 1.305964 -0.473670
-0.538095 1.311247 -0.475125
-0.532254 1.314791 -0.476137
-0.526092 1.317093 -0.476831
-0.521846 1.327579 -0.479595
-0.517031 1.335998 -0.481833
-0.511951 1.343561 -0.483852
-0.506070 1.347782 -0.485022
-0.499924 1.350912 -0.485913
-0.494315 1.356693 -0.487473
-0.489818 1.368107 -0.490460
-0.484002 1.373458 -0.491907
-0.478268 1.379445 -0.493512
-0.472535 1.385694 -0.495183
-0.467196 1.394340 -0.497459
-0.461345 1.400579 -0.499123
-0.455398 1.406567 -0.500721
-0.449247 1.411653 -0.502087
-0.442939 1.416038 -0.503274
-0.436613 1.420523 -0.504484
-0.430176 1.424528 -0.505569
-0.423872 1.429607 -0.506926
-0.418251 1.439629 -0.509537
-0.412008 1.445899 -0.511193
-0.404844 1.445832 -0.511235
-0.399754 1.461399 -0.515251
-0.394441 1.476339 -0.519107
-0.389169 1.492739 -0.523333
-0.383320 1.505524 -0.526639
-0.376587 1.511503 -0.528210
-0.369063 1.510631 -0.528035
-0.362437 1.518313 -0.530036
-0.355419 1.522690 -0.531194
-0.348490 1.528410 -0.532691
-0.341571 1.534796 -0.534356
-0.335010 1.546110 -0.537274
-0.328365 1.557661 -0.540251
-0.321619 1.569274 -0.543241
-0.314272 1.573747 -0.544411
-0.307442 1.586807 -0.547766
-0.300146 1.594069 -0.549642
-0.292945 1.604234 -0.552255
-0.285770 1.616775 -0.555472
-0.278337 1.626144 -0.557878
-0.271123 1.643018 -0.562194
-0.263418 1.650571 -0.564132
-0.255602 1.656736 -0.565713
-0.248009 1.673446 -0.569980
-0.240153 1.685180 -0.572976
-0.232176 1.696193 -0.575784
-0.224024 1.701106 -0.577035
-0.215924 1.719241 -0.581653
-0.207637 1.730528 -0.584522
-0.199257 1.736769 -0.586101
-0.190772 1.749684 -0.589378
-0.182228 1.757390 -0.591324
-0.173160 1.792323 -0.600203
-0.164388 1.797864 -0.601589
-0.155380 1.810456 -0.604767
-0.146452 1.816600 -0.606297
-0.137532 1.820899 -0.607354
-0.128130 1.836081 -0.611177
-0.118689 1.848923 -0.614400
-0.109221 1.859827 -0.617123
-0.099542 1.872657 -0.620332
-0.090023 1.880693 -0.622315
-0.080058 1.894456 -0.625749
-0.070348 1.902557 -0.627736
-0.060004 1.918168 -0.631628
-0.050044 1.926919 -0.633767
-0.039949 1.936238 -0.636045
-0.029958 1.943297 -0.637740
-0.019262 1.957162 -0.641159
-0.008841 1.966768 -0.643488
0.001562 1.975223 -0.645516
0.012335 1.986302 -0.648203
0.022589 1.991712 -0.649441
0.033164 1.999336 -0.651234
0.044035 2.008708 -0.653462
0.054738 2.015935 -0.655136
0.065427 2.022435 -0.656617
0.076072 2.028047 -0.657863
0.087072 2.035694 -0.659616
0.097678 2.040024 -0.660518
0.108163 2.043159 -0.661108
0.119365 2.050599 -0.662779
0.130866 2.059342 -0.664768
0.142224 2.066580 -0.666365
0.152704 2.068122 -0.666511
0.162185 2.063749 -0.665150
0.171645 2.059368 -0.663779
0.181146 2.055311 -0.662481
0.190570 2.050933 -0.661092
0.199919 2.046258 -0.659619
0.208782 2.039248 -0.657548
0.218014 2.034247 -0.655974
0.227360 2.029889 -0.654553
0.235487 2.019918 -0.651710
0.244461 2.014114 -0.649907
0.253932 2.010645 -0.648681
0.262992 2.005403 -0.647000
0.270987 1.995700 -0.644191
0.279878 1.990004 -0.642378
0.289054 1.985571 -0.640873
0.297590 1.978609 -0.638726
0.306368 1.972741 -0.636843
0.314415 1.964151 -0.634272
0.323082 1.958091 -0.632325
0.331475 1.951115 -0.630142
0.339697 1.943645 -0.627829
0.347486 1.934777 -0.625161
0.355066 1.925371 -0.622354
0.363544 1.919259 -0.620360
0.371746 1.912310 -0.618153
0.379826 1.905082 -0.615873
0.388154 1.898798 -0.613823
0.396711 1.893352 -0.611977
0.404263 1.884830 -0.609367
0.411577 1.875760 -0.606622
0.419554 1.868917 -0.604427
0.427934 1.863424 -0.602566
0.436419 1.858350 -0.600811
0.444111 1.851081 -0.598518
0.452191 1.845101 -0.596548
0.460082 1.838743 -0.594492
0.468319 1.833514 -0.592722
0.476913 1.829412 -0.591237
0.485182 1.824567 -0.589583
0.492420 1.817159 -0.587315
0.499918 1.810687 -0.585294
0.507430 1.804487 -0.583357
0.515384 1.799660 -0.581776
0.522889 1.793936 -0.579999
0.529700 1.786759 -0.577894
0.537325 1.781882 -0.576375
0.544251 1.775595 -0.574543
0.551973 1.771520 -0.573278
0.559563 1.767416 -0.572039
0.569182 1.768314 -0.572047
0.576683 1.764537 -0.570956
0.582374 1.756967 -0.568983
0.588375 1.750491 -0.567313
0.594824 1.745394 -0.566016
0.604267 1.747227 -0.566437
-0.885493 0.921893 -0.363973
-0.883503 0.926929 -0.365231
-0.880924 0.931318 -0.366359
-0.877045 0.934024 -0.367108
-0.874307 0.938505 -0.368308
-0.869523 0.940185 -0.368860
-0.864895 0.942203 -0.369515
-0.861425 0.946042 -0.370630
-0.858879 0.951393 -0.372131
-0.853452 0.952574 -0.372649
-0.851214 0.958671 -0.374370
-0.846568 0.961240 -0.375260
-0.842339 0.964542 -0.376343
-0.838609 0.968720 -0.377654
-0.835578 0.974108 -0.379273
-0.832098 0.978903 -0.380762
-0.827877 0.982609 -0.382000
-0.823893 0.986777 -0.383360
-0.819297 0.990014 -0.384502
-0.815490 0.994619 -0.385986
-0.811336 0.998718 -0.387354
-0.808253 1.004699 -0.389187
-0.804548 1.009707 -0.390789
-0.799335 1.012161 -0.391767
-0.795443 1.016951 -0.393321
-0.791096 1.020987 -0.394691
-0.786858 1.025260 -0.396121
-0.783079 1.030407 -0.397766
-0.780705 1.038199 -0.400065
-0.775333 1.040523 -0.401012
-0.772210 1.047074 -0.403004
-0.768269 1.052151 -0.404629
-0.764526 1.057659 -0.406359
-0.759898 1.061498 -0.407670
-0.755540 1.065889 -0.409116
-0.750937 1.069820 -0.410443
-0.746602 1.074313 -0.411906
-0.742592 1.079506 -0.413540
-0.738380 1.084333 -0.415078
-0.733606 1.088019 -0.416326
-0.729415 1.092962 -0.417884
-0.724550 1.096498 -0.419084
-0.719613 1.099893 -0.420243
-0.715703 1.105560 -0.421968
-0.711141 1.109842 -0.423340
-0.706773 1.114597 -0.424826
-0.702585 1.119811 -0.426423
-0.699014 1.126523 -0.428394
-0.694675 1.131528 -0.429928
-0.690017 1.135832 -0.431280
-0.684695 1.138574 -0.432231
-0.679653 1.142001 -0.433350
-0.673683 1.143147 -0.433884
-0.669581 1.148957 -0.435597
-0.668699 1.163082 -0.439421
-0.663749 1.167001 -0.440646
-0.657830 1.168419 -0.441228
-0.654156 1.175788 -0.443321
-0.646695 1.173072 -0.442838
-0.644677 1.185132 -0.446121
-0.641288 1.193672 -0.448502
-0.635944 1.196881 -0.449516
-0.630643 1.200247 -0.450567
-0.626592 1.207292 -0.452554
-0.621297 1.210814 -0.453635
-0.617352 1.218439 -0.455764
-0.611852 1.221502 -0.456719
-0.607098 1.226916 -0.458273
-0.602445 1.232768 -0.459936
-0.598038 1.239541 -0.461832
-0.593514 1.246105 -0.463670
-0.588951 1.252705 -0.465515
-0.583398 1.256137 -0.466542
-0.578397 1.261528 -0.468069
-0.573899 1.268810 -0.470080
-0.568477 1.273018 -0.471296
-0.563178 1.277769 -0.472649
-0.559543 1.288781 -0.475612
-0.554027 1.293092 -0.476845
-0.548596 1.297835 -0.478187
-0.543382 1.303566 -0.479781
-0.538042 1.308968 -0.481287
-0.532472 1.313604 -0.482592
-0.527310 1.320072 -0.484368
-0.522804 1.329547 -0.486918
-0.517062 1.334023 -0.488174
-0.511932 1.341355 -0.490166
-0.506036 1.345500 -0.491332
-0.499902 1.348684 -0.492247
-0.496677 1.365756 -0.496750
-0.490216 1.367883 -0.497387
-0.484227 1.372416 -0.498644
-0.478704 1.379502 -0.500559
-0.472923 1.385553 -0.502204
-0.467147 1.391896 -0.503923
-0.461656 1.400104 -0.506123
-0.455876 1.407080 -0.508002
-0.449649 1.411794 -0.509293
-0.443223 1.415536 -0.510330
-0.436638 1.418470 -0.511156
-0.430326 1.423281 -0.512466
-0.424163 1.429316 -0.514091
-0.418407 1.438476 -0.516525
-0.413240 1.452350 -0.520179
-0.407043 1.459649 -0.522127
-0.400702 1.466334 -0.523914
-0.394908 1.477766 -0.526931
-0.389239 1.491056 -0.530428
-0.383161 1.501913 -0.533292
-0.375821 1.502467 -0.533482
-0.368913 1.506999 -0.534701
-0.362130 1.513104 -0.536328
-0.355494 1.521231 -0.538477
-0.348869 1.530247 -0.540855
-0.342435 1.542326 -0.544026
-0.335441 1.549043 -0.545804
-0.328492 1.557068 -0.547919
-0.321608 1.566944 -0.550513
-0.314559 1.575712 -0.552817
-0.307200 1.580909 -0.554192
-0.300089 1.590999 -0.556836
-0.292992 1.603006 -0.559975
-0.285885 1.617013 -0.563632
-0.278913 1.636812 -0.568791
-0.271136 1.641393 -0.569994
-0.263358 1.647056 -0.571477
-0.255782 1.660795 -0.575054
-0.247958 1.669965 -0.577442
-0.240071 1.680060 -0.580068
-0.232150 1.693700 -0.583612
-0.224053 1.703300 -0.586103
-0.215903 1.717730 -0.589846
-0.207627 1.735739 -0.594515
-0.199212 1.740628 -0.595773
-0.190683 1.755347 -0.599581
-0.181891 1.780481 -0.606090
-0.173157 1.787913 -0.607997
-0.164395 1.793344 -0.609381
-0.155256 1.811279 -0.614008
-0.146335 1.816626 -0.615361
-0.137406 1.820773 -0.616399
-0.128066 1.834118 -0.619820
-0.118486 1.849930 -0.623877
-0.109037 1.860083 -0.626460
-0.099071 1.877867 -0.631018
-0.089825 1.880687 -0.631686
-0.080120 1.890179 -0.634081
-0.069665 1.909182 -0.638937
-0.059784 1.917889 -0.641116
-0.049758 1.927331 -0.643479
-0.039469 1.938791 -0.646358
-0.029663 1.943458 -0.647470
-0.019639 1.949939 -0.649045
-0.008657 1.965497 -0.652966
0.001925 1.975628 -0.655473
0.012501 1.984721 -0.657702
0.022775 1.990258 -0.659003
0.033592 1.999908 -0.661361
0.044284 2.007671 -0.663222
0.054814 2.013469 -0.664565
0.065402 2.019192 -0.665881
0.075951 2.024121 -0.666983
0.086438 2.028178 -0.667850
0.097311 2.034503 -0.669294
0.108150 2.040085 -0.670537
0.119272 2.047027 -0.672121
0.131939 2.063058 -0.676040
0.142939 2.067947 -0.677072
0.153129 2.067683 -0.676765
0.163038 2.065707 -0.676007
0.172325 2.060259 -0.674345
0.181665 2.055258 -0.672790
0.190868 2.049668 -0.671074
0.200093 2.044342 -0.669418
0.209289 2.039002 -0.667749
0.218785 2.035252 -0.666479
0.228136 2.030852 -0.665033
0.237346 2.025863 -0.663427
0.245061 2.014165 -0.660090
0.254167 2.009029 -0.658429
0.263253 2.003893 -0.656758
0.271892 1.996938 -0.654612
0.280166 1.988612 -0.652108
0.289291 1.983958 -0.650533
0.298665 1.980348 -0.649216
0.306374 1.970226 -0.646228
0.315207 1.964672 -0.644398
0.323597 1.957526 -0.642154
0.331891 1.950162 -0.639847
0.340071 1.942525 -0.637464
0.348068 1.934384 -0.634946
0.356547 1.928091 -0.632891
0.364791 1.921093 -0.630652
0.372641 1.912889 -0.628101
0.380099 1.903558 -0.625261
0.388881 1.898733 -0.623558
0.397462 1.893324 -0.621702
0.404975 1.884638 -0.619017
0.412374 1.875790 -0.616291
0.420170 1.868351 -0.613919
0.428952 1.864018 -0.612331
0.436723 1.856779 -0.610013
0.444746 1.850439 -0.607924
0.452548 1.843618 -0.605719
0.460764 1.838131 -0.603855
0.469171 1.833314 -0.602166
0.478078 1.829994 -0.600860
0.485724 1.823397 -0.598746
0.492388 1.814414 -0.596050
0.499526 1.806963 -0.593753
0.506828 1.800194 -0.591644
0.515500 1.797157 -0.590484
0.522636 1.790452 -0.588432
0.530530 1.785903 -0.586941
0.538472 1.781715 -0.585564
0.545843 1.776401 -0.583935
0.553778 1.772722 -0.582741
0.561051 1.767752 -0.581258
0.569682 1.766242 -0.580665
0.577105 1.762205 -0.579481
0.583163 1.755390 -0.577645
0.589035 1.748540 -0.575837
0.598323 1.749645 -0.576035
0.610393 1.757071 -0.577833
-0.882613 0.915894 -0.367819
-0.885676 0.927979 -0.370838
-0.881496 0.930163 -0.371454
-0.877912 0.933323 -0.372333
-0.874701 0.937163 -0.373403
-0.870237 0.939343 -0.374088
-0.866426 0.942593 -0.375059
-0.864198 0.948307 -0.376657
-0.858849 0.949553 -0.377177
-0.854947 0.953052 -0.378271
-0.850345 0.955608 -0.379151
-0.847025 0.960219 -0.380556
-0.842966 0.963813 -0.381726
-0.839338 0.968180 -0.383103
-0.835738 0.972698 -0.384531
-0.832670 0.978170 -0.386209
-0.828506 0.981993 -0.387489
-0.824005 0.985344 -0.388662
-0.820363 0.990168 -0.390210
-0.818014 0.997226 -0.392324
-0.813923 1.001487 -0.393747
-0.809721 1.005619 -0.395143
-0.804745 1.008476 -0.396223
-0.800348 1.012360 -0.397563
-0.796611 1.017444 -0.399207
-0.791604 1.020336 -0.400301
-0.786887 1.023757 -0.401528
-0.785435 1.033134 -0.404258
-0.779589 1.034586 -0.404987
-0.776707 1.041519 -0.407101
-0.772458 1.045976 -0.408586
-0.767990 1.050049 -0.409972
-0.764616 1.056256 -0.411897
-0.760344 1.060786 -0.413393
-0.755673 1.064565 -0.414694
-0.751357 1.069067 -0.416176
-0.747347 1.074221 -0.417820
-0.742903 1.078535 -0.419246
-0.738355 1.082665 -0.420620
-0.734601 1.088482 -0.422421
-0.729576 1.091671 -0.423545
-0.724556 1.094872 -0.424665
-0.720415 1.099991 -0.426274
-0.716582 1.105842 -0.428065
-0.711761 1.109559 -0.429303
-0.706583 1.112490 -0.430334
-0.704794 1.123182 -0.433360
-0.700132 1.127414 -0.434716
-0.695172 1.130984 -0.435896
-0.690433 1.135099 -0.437212
-0.685337 1.138391 -0.438309
-0.679567 1.140052 -0.438978
-0.676880 1.149332 -0.441616
-0.672860 1.155445 -0.443430
-0.668732 1.161383 -0.445194
-0.663700 1.165081 -0.446372
-0.658953 1.169565 -0.447749
-0.652698 1.170099 -0.448094
-0.650068 1.180361 -0.450966
-0.645215 1.184771 -0.452310
-0.641433 1.192224 -0.454443
-0.637043 1.198120 -0.456167
-0.631441 1.200662 -0.457011
-0.626990 1.206565 -0.458728
-0.622274 1.211807 -0.460269
-0.617607 1.217296 -0.461870
-0.613242 1.223824 -0.463739
-0.607871 1.227383 -0.464829
-0.602667 1.231530 -0.466067
-0.598819 1.240088 -0.468458
-0.593475 1.244015 -0.469632
-0.588310 1.248605 -0.470976
-0.583806 1.255525 -0.472928
-0.578914 1.261304 -0.474577
-0.574295 1.268181 -0.476512
-0.570181 1.277048 -0.478966
-0.564242 1.279588 -0.479756
-0.559497 1.286567 -0.481709
-0.554151 1.291504 -0.483122
-0.548765 1.296422 -0.484528
-0.543704 1.302751 -0.486301
-0.538535 1.308850 -0.488012
-0.532923 1.313344 -0.489298
-0.527552 1.318975 -0.490880
-0.522902 1.327850 -0.493313
-0.517322 1.333029 -0.494772
-0.511581 1.337674 -0.496087
-0.506223 1.344212 -0.497899
-0.500078 1.347356 -0.498814
-0.495713 1.359026 -0.501974
-0.490430 1.366756 -0.504093
-0.484784 1.373013 -0.505822
-0.479102 1.379348 -0.507570
-0.473317 1.385423 -0.509247
-0.467542 1.391817 -0.511006
-0.461766 1.398509 -0.512842
-0.455787 1.404368 -0.514456
-0.450251 1.413088 -0.516824
-0.443635 1.415798 -0.517603
-0.436930 1.418067 -0.518263
-0.430639 1.423056 -0.519640
-0.424378 1.428516 -0.521140
-0.419397 1.442981 -0.525016
-0.414338 1.457827 -0.528993
-0.407975 1.464191 -0.530726
-0.400912 1.465679 -0.531169
-0.394628 1.473326 -0.533238
-0.388494 1.482741 -0.535773
-0.382100 1.490662 -0.537911
-0.375444 1.496884 -0.539599
-0.368818 1.503876 -0.541488
-0.362280 1.512311 -0.543757
-0.355366 1.517697 -0.545218
-0.349699 1.536879 -0.550327
-0.342766 1.543828 -0.552198
-0.335520 1.547774 -0.553273
-0.328853 1.559439 -0.556388
-0.321819 1.567597 -0.558573
-0.314544 1.573341 -0.560118
-0.307632 1.585457 -0.563347
-0.300514 1.595996 -0.566156
-0.293156 1.603910 -0.568269
-0.286013 1.617515 -0.571887
-0.278902 1.634599 -0.576422
-0.271214 1.641418 -0.578239
-0.263509 1.649454 -0.580375
-0.255976 1.665354 -0.584590
-0.248069 1.672678 -0.586533
-0.240173 1.683555 -0.589414
-0.232218 1.696936 -0.592955
-0.224116 1.708433 -0.595994
-0.215951 1.726028 -0.600644
-0.207605 1.737045 -0.603550
-0.199169 1.742201 -0.604901
-0.190609 1.758298 -0.609145
-0.181923 1.772234 -0.612813
-0.173172 1.782200 -0.615427
-0.164289 1.793983 -0.618518
-0.155260 1.807047 -0.621943
-0.146221 1.816432 -0.624391
-0.137148 1.824273 -0.626426
-0.127775 1.837641 -0.629920
-0.118299 1.850474 -0.633266
-0.108938 1.858545 -0.635348
-0.098992 1.875842 -0.639865
-0.089564 1.881647 -0.641337
-0.079698 1.893369 -0.644369
-0.069558 1.907369 -0.647997
-0.059468 1.918841 -0.650950
-0.049496 1.927358 -0.653117
-0.039242 1.938230 -0.655899
-0.029283 1.944514 -0.657462
-0.018562 1.958269 -0.660993
-0.008697 1.961862 -0.661832
0.001687 1.970101 -0.663891
0.012454 1.981097 -0.666671
0.023169 1.990599 -0.669048
0.033846 1.998911 -0.671103
0.044485 2.006169 -0.672872
0.054778 2.010061 -0.673745
0.064743 2.011075 -0.673852
0.075351 2.016635 -0.675148
0.086401 2.024838 -0.677133
0.097535 2.032968 -0.679088
0.108781 2.041213 -0.681064
0.120629 2.052690 -0.683880
0.132298 2.062254 -0.686183
0.143196 2.066476 -0.687069
0.153493 2.066812 -0.686924
0.163469 2.065183 -0.686254
0.172797 2.059922 -0.684620
0.182100 2.054681 -0.682983
0.191461 2.049887 -0.681455
0.200102 2.041522 -0.678982
0.209683 2.038128 -0.677805
0.219253 2.034714 -0.676612
0.228427 2.029443 -0.674923
0.237647 2.024489 -0.673309
0.246114 2.016204 -0.670815
0.254809 2.009162 -0.668638
0.263837 2.003731 -0.666873
0.272569 1.997139 -0.664796
0.281052 1.989645 -0.662475
0.289801 1.983404 -0.660473
0.298530 1.977193 -0.658470
0.307164 1.970717 -0.656390
0.315456 1.963046 -0.653991
0.323563 1.954836 -0.651444
0.331903 1.947660 -0.649159
0.340360 1.941040 -0.647012
0.349091 1.935499 -0.645137
0.357805 1.929971 -0.643258
0.365218 1.920060 -0.640239
0.373532 1.913399 -0.638056
0.381188 1.904679 -0.635336
0.389409 1.897973 -0.633132
0.397675 1.891526 -0.630992
0.405719 1.884498 -0.628699
0.412272 1.873002 -0.625255
0.421241 1.869119 -0.623769
0.430323 1.865618 -0.622380
0.438517 1.859546 -0.620332
0.445374 1.849737 -0.617329
0.453306 1.843239 -0.615179
0.461718 1.838248 -0.613419
0.470034 1.833113 -0.611630
0.477718 1.826400 -0.609446
0.485798 1.820948 -0.607595
0.492333 1.811591 -0.604761
0.499574 1.804370 -0.602487
0.507647 1.799537 -0.600838
0.515299 1.793841 -0.598987
0.523983 1.790958 -0.597870
0.531657 1.785770 -0.596190
0.538944 1.779892 -0.594361
0.546535 1.775036 -0.592816
0.553614 1.769242 -0.591063
0.561484 1.765614 -0.589887
0.569440 1.762461 -0.588864
0.576317 1.757114 -0.587319
0.582935 1.751522 -0.585747
0.590290 1.747932 -0.584716
0.599027 1.747710 -0.584572
0.607031 1.746141 -0.584125
-0.889908 0.923985 -0.375157
-0.885732 0.926071 -0.375740
-0.881486 0.928193 -0.376356
-0.876780 0.929789 -0.376862
-0.873505 0.933549 -0.377935
-0.870721 0.938168 -0.379246
-0.867755 0.942683 -0.380553
-0.864081 0.946310 -0.381658
-0.859577 0.948839 -0.382506
-0.854456 0.950547 -0.383167
-0.851659 0.955851 -0.384752
-0.847694 0.959516 -0.385940
-0.845943 0.966706 -0.388036
-0.842372 0.971226 -0.389471
-0.839016 0.976195 -0.391035
-0.834950 0.980145 -0.392352
-0.829624 0.982153 -0.393186
-0.824890 0.985159 -0.394282
-0.821681 0.990720 -0.396037
-0.817491 0.994752 -0.397409
-0.813842 0.999752 -0.399034
-0.809516 1.003679 -0.400391
-0.805469 1.008134 -0.401886
-0.802319 1.014201 -0.403797
-0.797313 1.017099 -0.404898
-0.792320 1.020033 -0.406007
-0.787491 1.023271 -0.407195
-0.782663 1.026525 -0.408385
-0.781476 1.036476 -0.411304
-0.776862 1.040227 -0.412621
-0.771843 1.043236 -0.413744
-0.769027 1.050434 -0.415950
-0.765156 1.055700 -0.417653
-0.760291 1.059085 -0.418864
-0.756006 1.063616 -0.420369
-0.751883 1.068503 -0.421963
-0.748040 1.073999 -0.423713
-0.743787 1.078715 -0.425254
-0.738383 1.081089 -0.426180
-0.734540 1.086712 -0.427950
-0.730253 1.091457 -0.429486
-0.725302 1.094816 -0.430654
-0.720522 1.098557 -0.431917
-0.717670 1.106555 -0.434292
-0.712275 1.109018 -0.435210
-0.706862 1.111425 -0.436107
-0.705478 1.123033 -0.439420
-0.700105 1.125628 -0.440357
-0.695099 1.129081 -0.441514
-0.690303 1.133049 -0.442802
-0.685829 1.137829 -0.444299
-0.682030 1.144312 -0.446241
-0.676900 1.147606 -0.447336
-0.672932 1.153840 -0.449204
-0.668712 1.159532 -0.450924
-0.663959 1.163943 -0.452301
-0.658856 1.167491 -0.453443
-0.654585 1.173286 -0.455178
-0.650345 1.179263 -0.456957
-0.645368 1.183338 -0.458226
-0.640418 1.187539 -0.459524
-0.636633 1.195085 -0.461708
-0.631939 1.200199 -0.463242
-0.627097 1.204977 -0.464681
-0.622514 1.210602 -0.466343
-0.617903 1.216262 -0.468010
-0.613173 1.221676 -0.469608
-0.608195 1.226443 -0.471030
-0.605611 1.238823 -0.474480
-0.599472 1.240205 -0.474992
-0.593348 1.241621 -0.475508
-0.589355 1.250071 -0.477900
-0.586066 1.261120 -0.480984
-0.580134 1.263464 -0.481738
-0.574540 1.267012 -0.482811
-0.570180 1.275007 -0.485070
-0.565111 1.280682 -0.486705
-0.559417 1.284215 -0.487765
-0.554131 1.289362 -0.489253
-0.549218 1.296078 -0.491159
-0.544199 1.302592 -0.493008
-0.539280 1.309712 -0.495017
-0.534085 1.315955 -0.496789
-0.527799 1.317890 -0.497403
-0.523295 1.327382 -0.500041
-0.517654 1.332330 -0.501458
-0.511941 1.337125 -0.502832
-0.506556 1.343566 -0.504645
-0.501065 1.349764 -0.506390
-0.495825 1.357388 -0.508517
-0.490696 1.365863 -0.510871
-0.485296 1.373363 -0.512960
-0.479501 1.379184 -0.514597
-0.473710 1.385270 -0.516302
-0.468093 1.392561 -0.518330
-0.461997 1.397563 -0.519740
-0.455955 1.403099 -0.521292
-0.450439 1.411956 -0.523736
-0.444106 1.416393 -0.524989
-0.437557 1.419706 -0.525937
-0.431297 1.425017 -0.527422
-0.425273 1.432163 -0.529398
-0.419957 1.444539 -0.532781
-0.413738 1.451362 -0.534667
-0.407508 1.458544 -0.536649
-0.400823 1.462760 -0.537830
-0.394689 1.471551 -0.540241
-0.388342 1.479250 -0.542357
-0.381758 1.485510 -0.544083
-0.375426 1.494479 -0.546538
-0.369282 1.505918 -0.549657
-0.362504 1.512243 -0.551396
-0.356008 1.521980 -0.554053
-0.349470 1.532197 -0.556838
-0.342540 1.539061 -0.558717
-0.336126 1.552761 -0.562438
-0.329003 1.559132 -0.564181
-0.321858 1.565935 -0.566038
-0.315116 1.579400 -0.569690
-0.308110 1.590691 -0.572754
-0.300718 1.597299 -0.574554
-0.293527 1.608580 -0.577611
-0.286121 1.617655 -0.580072
-0.278743 1.629153 -0.583184
-0.271139 1.637698 -0.585497
-0.263690 1.652715 -0.589554
-0.256075 1.666883 -0.593379
-0.248152 1.674372 -0.595400
-0.240157 1.681675 -0.597369
-0.232308 1.701590 -0.602736
-0.224112 1.708214 -0.604516
-0.215843 1.713100 -0.605825
-0.207581 1.738830 -0.612751
-0.199127 1.742856 -0.613822
-0.190533 1.761366 -0.618794
-0.181952 1.764101 -0.619510
-0.173109 1.781090 -0.624066
-0.164230 1.792248 -0.627046
-0.155272 1.802373 -0.629743
-0.146215 1.812604 -0.632465
-0.137122 1.821140 -0.634725
-0.127299 1.845614 -0.641277
-0.118116 1.850854 -0.642641
-0.108754 1.858622 -0.644681
-0.099371 1.865413 -0.646453
-0.089668 1.876420 -0.649356
-0.079887 1.886984 -0.652134
-0.070004 1.897500 -0.654894
-0.059313 1.917521 -0.660207
-0.049455 1.924506 -0.662004
-0.039079 1.936826 -0.665232
-0.028983 1.944583 -0.667224
-0.018806 1.952344 -0.669211
-0.008553 1.960053 -0.671177
0.001998 1.969868 -0.673703
0.012641 1.979578 -0.676194
0.023468 1.990015 -0.678872
0.034072 1.997614 -0.680780
0.044893 2.006302 -0.682972
0.055052 2.009032 -0.683555
0.064457 2.005743 -0.682514
0.074202 2.005081 -0.682172
0.087732 2.031106 -0.688985
0.099185 2.041114 -0.691489
0.110029 2.046348 -0.692701
0.120930 2.051515 -0.693887
0.132754 2.061983 -0.696484
0.143453 2.064942 -0.697058
0.153863 2.065917 -0.697092
0.163747 2.063722 -0.696267
0.172907 2.057519 -0.694362
0.182613 2.054463 -0.693290
0.192124 2.050410 -0.691943
0.201191 2.044162 -0.690000
0.210090 2.037252 -0.687873
0.218996 2.030581 -0.685801
0.228446 2.026671 -0.684458
0.237476 2.020859 -0.682598
0.246336 2.014402 -0.680558
0.255170 2.007979 -0.678519
0.264046 2.001878 -0.676557
0.273079 1.996567 -0.674796
0.281777 1.989944 -0.672678
0.290210 1.982372 -0.670300
0.298806 1.975620 -0.668132
0.307207 1.968232 -0.665787
0.315465 1.960448 -0.663329
0.323637 1.952503 -0.660822
0.331957 1.945264 -0.658494
0.340715 1.939739 -0.656613
0.349446 1.934189 -0.654718
0.358201 1.928789 -0.652855
0.365070 1.917007 -0.649303
0.373305 1.910099 -0.647031
0.381574 1.903424 -0.644816
0.389490 1.895711 -0.642324
0.397847 1.889554 -0.640237
0.405152 1.880202 -0.637308
0.412854 1.872279 -0.634754
0.421869 1.868499 -0.633284
0.430726 1.864285 -0.631699
0.439129 1.858795 -0.629780
0.445886 1.848661 -0.626650
0.454185 1.843167 -0.624736
0.462663 1.838300 -0.622990
0.470511 1.831812 -0.620828
0.477816 1.824024 -0.618336
0.485321 1.817000 -0.616053
0.493414 1.811740 -0.614240
0.501419 1.806430 -0.612428
0.508645 1.799318 -0.610164
0.517085 1.795534 -0.608779
0.525034 1.790707 -0.607144
0.532052 1.783818 -0.604996
0.539329 1.777853 -0.603112
0.546299 1.771441 -0.601137
0.554286 1.767744 -0.599891
0.561825 1.763262 -0.598471
0.569139 1.758551 -0.597023
0.575896 1.752876 -0.595358
0.583442 1.749327 -0.594275
0.591103 1.746339 -0.593370
0.598927 1.744012 -0.592672
0.605979 1.740300 -0.591653
-0.887688 0.918917 -0.379237
-0.886235 0.924794 -0.380807
-0.882256 0.927323 -0.381542
-0.877527 0.928927 -0.382061
-0.872941 0.930850 -0.382684
-0.872023 0.938172 -0.384716
-0.867497 0.940460 -0.385476
-0.863684 0.943905 -0.386553
-0.860364 0.948208 -0.387870
-0.856852 0.952359 -0.389167
-0.851659 0.954100 -0.389860
-0.848719 0.959351 -0.391474
-0.846532 0.965898 -0.393439
-0.842831 0.970243 -0.394850
-0.839100 0.974644 -0.396287
-0.834882 0.978371 -0.397561
-0.830172 0.981383 -0.398659
-0.826270 0.985762 -0.400121
-0.821884 0.989425 -0.401404
-0.817912 0.993833 -0.402887
-0.813181 0.997033 -0.404061
-0.809945 1.002803 -0.405910
-0.805806 1.007114 -0.407382
-0.802007 1.012064 -0.409023
-0.797156 1.015232 -0.410199
-0.791751 1.017436 -0.411121
-0.788288 1.023111 -0.412956
-0.783737 1.026885 -0.414290
-0.780668 1.033398 -0.416345
-0.776838 1.038585 -0.418049
-0.772066 1.042055 -0.419298
-0.768545 1.047911 -0.421175
-0.765106 1.053991 -0.423110
-0.760840 1.058533 -0.424634
-0.756373 1.062715 -0.426059
-0.752325 1.067753 -0.427708
-0.748876 1.074045 -0.429687
-0.744261 1.078036 -0.431049
-0.739302 1.081334 -0.432223
-0.733869 1.083648 -0.433128
-0.731838 1.093140 -0.435946
-0.726543 1.095797 -0.436933
-0.722295 1.100716 -0.438520
-0.717714 1.104953 -0.439920
-0.712784 1.108445 -0.441115
-0.708086 1.112471 -0.442449
-0.703656 1.117140 -0.443950
-0.699935 1.123495 -0.445899
-0.695222 1.127618 -0.447244
-0.690515 1.131794 -0.448598
-0.685641 1.135605 -0.449849
-0.683307 1.145644 -0.452775
-0.678116 1.148824 -0.453846
-0.673500 1.153459 -0.455306
-0.668941 1.158299 -0.456817
-0.663928 1.162036 -0.458024
-0.659535 1.167432 -0.459676
-0.654727 1.171814 -0.461050
-0.650255 1.177162 -0.462680
-0.646498 1.184552 -0.464860
-0.642187 1.190560 -0.466662
-0.637253 1.194934 -0.468017
-0.632146 1.198885 -0.469253
-0.627921 1.205446 -0.471193
-0.623774 1.212382 -0.473232
-0.618318 1.215563 -0.474247
-0.613367 1.220317 -0.475686
-0.608097 1.224180 -0.476879
-0.605146 1.235382 -0.480065
-0.600725 1.242216 -0.482060
-0.595726 1.247342 -0.483586
-0.590551 1.252010 -0.484985
-0.584892 1.255155 -0.485966
-0.579979 1.260904 -0.487653
-0.576138 1.270527 -0.490393
-0.569658 1.271106 -0.490664
-0.565689 1.280700 -0.493391
-0.559827 1.283651 -0.494303
-0.555111 1.290949 -0.496398
-0.549812 1.296252 -0.497947
-0.544847 1.303014 -0.499891
-0.539767 1.309534 -0.501766
-0.534782 1.316655 -0.503804
-0.529275 1.321862 -0.505316
-0.523873 1.327684 -0.506994
-0.517996 1.331656 -0.508164
-0.513103 1.340091 -0.510552
-0.507660 1.346377 -0.512350
-0.502296 1.353268 -0.514311
-0.496979 1.360651 -0.516406
-0.491395 1.367051 -0.518229
-0.485797 1.373644 -0.520103
-0.480009 1.379558 -0.521790
-0.474250 1.385873 -0.523584
-0.468225 1.391051 -0.525065
-0.462245 1.396700 -0.526673
-0.456503 1.403961 -0.528721
-0.450878 1.412267 -0.531054
-0.444529 1.416678 -0.532317
-0.438107 1.420859 -0.533516
-0.432122 1.428020 -0.535530
-0.426114 1.435438 -0.537613
-0.420163 1.443676 -0.539919
-0.413811 1.449622 -0.541595
-0.407476 1.456055 -0.543403
-0.400840 1.460634 -0.544700
-0.394755 1.469813 -0.547258
-0.388487 1.478174 -0.549591
-0.382106 1.486204 -0.551831
-0.375832 1.495810 -0.554501
-0.369533 1.505978 -0.557325
-0.363034 1.515109 -0.559862
-0.356358 1.523279 -0.562135
-0.349429 1.529532 -0.563879
-0.342407 1.535343 -0.565500
-0.335674 1.545183 -0.568226
-0.328933 1.556057 -0.571234
-0.321965 1.565204 -0.573766
-0.315392 1.581205 -0.578179
-0.308222 1.590295 -0.580692
-0.300833 1.597111 -0.582579
-0.293708 1.609802 -0.586077
-0.286327 1.619751 -0.588820
-0.278707 1.626440 -0.590666
-0.271177 1.636797 -0.593517
-0.263530 1.646518 -0.596191
-0.256087 1.665652 -0.601448
-0.248136 1.672360 -0.603290
-0.240278 1.686158 -0.607077
-0.232286 1.699692 -0.610789
-0.224077 1.705590 -0.612400
-0.215802 1.709727 -0.613526
-0.207536 1.732760 -0.619838
-0.199071 1.747633 -0.623906
-0.190530 1.753639 -0.625535
-0.181813 1.769766 -0.629941
-0.173017 1.781422 -0.633115
-0.164124 1.792508 -0.636129
-0.155260 1.798529 -0.637749
-0.146136 1.811051 -0.641150
-0.137153 1.816325 -0.642557
-0.127172 1.844896 -0.650354
-0.117952 1.850698 -0.651898
-0.108654 1.856948 -0.653560
-0.099306 1.862979 -0.655157
-0.089771 1.871143 -0.657335
-0.079468 1.889941 -0.662425
-0.069400 1.902722 -0.665858
-0.059484 1.911757 -0.668259
-0.049282 1.923262 -0.671330
-0.039193 1.932052 -0.673652
-0.028823 1.942991 -0.676556
-0.018649 1.950656 -0.678557
-0.008295 1.959330 -0.680828
0.002397 1.970405 -0.683750
0.012722 1.977019 -0.685442
0.023927 1.990785 -0.689086
0.034943 2.001740 -0.691953
0.045485 2.007870 -0.693491
0.055180 2.006785 -0.693046
0.064018 1.999201 -0.690818
0.075043 2.008030 -0.693072
0.087639 2.027241 -0.698155
0.099176 2.037858 -0.700879
0.109755 2.041360 -0.701649
0.121416 2.051449 -0.704209
0.133381 2.062709 -0.707079
0.144139 2.065926 -0.707744
0.154140 2.064413 -0.707109
0.163783 2.060825 -0.705899
0.173227 2.056215 -0.704403
0.182863 2.052760 -0.703213
0.192576 2.049756 -0.702138
0.201639 2.043455 -0.700157
0.210017 2.033926 -0.697289
0.218824 2.026809 -0.695070
0.228221 2.022688 -0.693658
0.237542 2.018278 -0.692158
0.246133 2.010621 -0.689768
0.255262 2.005549 -0.688072
0.264103 1.999310 -0.686050
0.272995 1.993416 -0.684114
0.282304 1.989356 -0.682666
0.290778 1.981933 -0.680299
0.299227 1.974565 -0.677939
0.306995 1.964699 -0.674897
0.315688 1.958614 -0.672869
0.324080 1.951495 -0.670554
0.332454 1.944439 -0.668249
0.341133 1.938610 -0.666268
0.350137 1.934009 -0.664611
0.357382 1.923330 -0.661310
0.365270 1.915095 -0.658663
0.373481 1.908106 -0.656345
0.382102 1.902584 -0.654416
0.390320 1.895827 -0.652151
0.398198 1.888104 -0.649623
0.406761 1.882671 -0.647705
0.414165 1.873749 -0.644852
0.421868 1.865928 -0.642292
0.430865 1.862120 -0.640804
0.438704 1.854964 -0.638422
0.447144 1.849695 -0.636544
0.454570 1.841653 -0.633932
0.463242 1.837290 -0.632302
0.471368 1.831522 -0.630305
0.478551 1.823348 -0.627676
0.486169 1.816567 -0.625427
0.494508 1.811892 -0.623746
0.502847 1.807372 -0.622119
0.510825 1.802096 -0.620306
0.518287 1.795723 -0.618219
0.525953 1.790107 -0.616351
0.532455 1.781874 -0.613813
0.539947 1.776370 -0.612018
0.548185 1.772919 -0.610788
0.555500 1.767522 -0.609071
0.562287 1.761191 -0.607136
0.569197 1.755475 -0.605394
0.576163 1.750216 -0.603802
0.585005 1.749514 -0.603441
0.592625 1.746330 -0.602460
0.599720 1.742296 -0.601290
0.607510 1.740106 -0.600640
-0.891207 0.921769 -0.385361
-0.886789 0.923590 -0.385904
-0.883860 0.927623 -0.387049
-0.878906 0.928957 -0.387507
-0.874904 0.931757 -0.388372
-0.870214 0.933699 -0.389033
-0.868019 0.939372 -0.390693
-0.862602 0.940501 -0.391179
-0.861187 0.947625 -0.393260
-0.856373 0.949867 -0.394074
-0.851607 0.952269 -0.394946
-0.850197 0.959866 -0.397205
-0.845850 0.963127 -0.398333
-0.841754 0.966864 -0.399601
-0.838241 0.971606 -0.401146
-0.834546 0.976163 -0.402652
-0.830834 0.980785 -0.404186
-0.827022 0.985332 -0.405709
-0.823529 0.990481 -0.407399
-0.818378 0.992974 -0.408388
-0.813859 0.996547 -0.409668
-0.809571 1.000552 -0.411068
-0.806331 1.006399 -0.412963
-0.801448 1.009485 -0.414121
-0.796831 1.013057 -0.415411
-0.794062 1.019921 -0.417584
-0.789532 1.023732 -0.418939
-0.784655 1.026941 -0.420130
-0.780193 1.030919 -0.421526
-0.776581 1.036495 -0.423352
-0.774755 1.045477 -0.426095
-0.770899 1.050750 -0.427836
-0.765223 1.052585 -0.428644
-0.760758 1.056739 -0.430076
-0.756939 1.062184 -0.431854
-0.752912 1.067272 -0.433531
-0.749012 1.072659 -0.435287
-0.745238 1.078357 -0.437123
-0.739882 1.080857 -0.438085
-0.734552 1.083396 -0.439052
-0.730246 1.088082 -0.440600
-0.727125 1.095342 -0.442845
-0.722637 1.099749 -0.444308
-0.718021 1.103907 -0.445697
-0.713317 1.107902 -0.447038
-0.708488 1.111641 -0.448303
-0.703777 1.115670 -0.449643
-0.700021 1.121936 -0.451591
-0.695704 1.126979 -0.453200
-0.690725 1.130515 -0.454390
-0.686200 1.135164 -0.455881
-0.684465 1.146661 -0.459250
-0.679126 1.149504 -0.460237
-0.674176 1.153328 -0.461489
-0.668703 1.155862 -0.462380
-0.664960 1.162850 -0.464494
-0.660103 1.167060 -0.465838
-0.655430 1.171810 -0.467327
-0.650982 1.177240 -0.469000
-0.647631 1.185749 -0.471518
-0.642941 1.190744 -0.473063
-0.637967 1.195025 -0.474407
-0.633354 1.200404 -0.476050
-0.629056 1.206798 -0.477971
-0.625019 1.214095 -0.480138
-0.619912 1.218366 -0.481464
-0.613503 1.218763 -0.481713
-0.609137 1.225410 -0.483690
-0.604271 1.230650 -0.485273
-0.600337 1.238973 -0.487709
-0.596611 1.248190 -0.490390
-0.591116 1.251844 -0.491524
-0.585193 1.254132 -0.492276
-0.579521 1.257298 -0.493268
-0.575403 1.265916 -0.495772
-0.571476 1.275467 -0.498532
-0.565758 1.278870 -0.499581
-0.560717 1.284832 -0.501339
-0.555373 1.289831 -0.502827
-0.550521 1.296847 -0.504872
-0.545119 1.301950 -0.506384
-0.539978 1.308242 -0.508223
-0.534684 1.314121 -0.509945
-0.529551 1.320854 -0.511903
-0.524185 1.326846 -0.513652
-0.518540 1.331842 -0.515122
-0.514122 1.342407 -0.518141
-0.508203 1.346643 -0.519394
-0.502781 1.353313 -0.521324
-0.496863 1.357907 -0.522673
-0.491422 1.364973 -0.524710
-0.485803 1.371461 -0.526583
-0.480306 1.378842 -0.528703
-0.474308 1.383948 -0.530188
-0.468148 1.388406 -0.531489
-0.462196 1.394202 -0.533162
-0.456773 1.403245 -0.535739
-0.451076 1.411169 -0.538003
-0.444757 1.415793 -0.539343
-0.438821 1.422998 -0.541403
-0.432606 1.428834 -0.543079
-0.426405 1.435087 -0.544870
-0.420383 1.442905 -0.547096
-0.413807 1.447330 -0.548373
-0.407484 1.453849 -0.550233
-0.401474 1.463139 -0.552866
-0.395047 1.469830 -0.554771
-0.388671 1.477402 -0.556921
-0.382408 1.486497 -0.559495
-0.375859 1.493784 -0.561563
-0.369922 1.507295 -0.565368
-0.363506 1.517400 -0.568220
-0.356502 1.522492 -0.569670
-0.349371 1.526683 -0.570866
-0.342941 1.539118 -0.574364
-0.335927 1.545978 -0.576303
-0.329493 1.560902 -0.580495
-0.322651 1.572212 -0.583674
-0.315470 1.580159 -0.585912
-0.308160 1.587210 -0.587898
-0.301234 1.601689 -0.591958
-0.293960 1.612318 -0.594940
-0.286301 1.617241 -0.596325
-0.278923 1.629261 -0.599693
-0.271305 1.638099 -0.602168
-0.263644 1.647991 -0.604936
-0.255837 1.656122 -0.607210
-0.248152 1.671664 -0.611553
-0.240207 1.681860 -0.614399
-0.232199 1.693978 -0.617780
-0.224061 1.704651 -0.620755
-0.215794 1.711146 -0.622558
-0.207502 1.732171 -0.628422
-0.199055 1.735206 -0.629252
-0.190481 1.752139 -0.633966
-0.181830 1.762122 -0.636733
-0.172890 1.783727 -0.642745
-0.164086 1.789548 -0.644341
-0.155154 1.798133 -0.646707
-0.146160 1.806086 -0.648892
-0.136787 1.822480 -0.653432
-0.127270 1.838534 -0.657873
-0.117899 1.848026 -0.660476
-0.108620 1.853856 -0.662052
-0.099046 1.864013 -0.664831
-0.089389 1.873881 -0.667526
-0.079266 1.889462 -0.671811
-0.069285 1.900811 -0.674908
-0.059513 1.907839 -0.676794
-0.049141 1.921545 -0.680538
-0.039069 1.930048 -0.682824
-0.028775 1.940081 -0.685532
-0.018389 1.949999 -0.688201
-0.008142 1.957476 -0.690182
0.002315 1.966220 -0.692510
0.013334 1.979307 -0.696043
0.024214 1.989965 -0.698891
0.035133 1.999996 -0.701557
0.045582 2.005324 -0.702904
0.055155 2.003283 -0.702192
0.064676 2.000906 -0.701379
0.074134 1.998144 -0.700453
0.087596 2.023673 -0.707394
0.099293 2.035394 -0.710482
0.109755 2.038119 -0.711058
0.120953 2.045262 -0.712854
0.133879 2.062563 -0.717465
0.144404 2.064304 -0.717740
0.154257 2.061907 -0.716857
0.163989 2.058841 -0.715780
0.173435 2.054237 -0.714269
0.183062 2.050725 -0.713052
0.192288 2.045166 -0.711259
0.201142 2.037868 -0.708977
0.210231 2.031971 -0.707076
0.219184 2.025562 -0.705024
0.228207 2.019656 -0.703104
0.237506 2.015163 -0.701567
0.246842 2.010909 -0.700088
0.255544 2.003898 -0.697838
0.264673 1.998901 -0.696137
0.273473 1.992587 -0.694063
0.282159 1.985924 -0.691885
0.291039 1.980182 -0.689954
0.299749 1.973858 -0.687854
0.308327 1.967126 -0.685634
0.316393 1.958561 -0.682902
0.324858 1.951682 -0.680626
0.332912 1.943414 -0.677962
0.341584 1.937543 -0.675950
0.350068 1.931089 -0.673771
0.357867 1.922352 -0.670959
0.365938 1.914725 -0.668447
0.374157 1.907732 -0.666102
0.382589 1.901558 -0.663977
0.391411 1.896734 -0.662216
0.399795 1.890563 -0.660082
0.408110 1.884269 -0.657911
0.414032 1.870733 -0.653763
0.422333 1.864722 -0.651667
0.430796 1.859297 -0.649728
0.439611 1.854993 -0.648094
0.446732 1.845875 -0.645153
0.455421 1.841418 -0.643481
0.463839 1.836293 -0.641630
0.472115 1.830891 -0.639710
0.480102 1.824844 -0.637621
0.487782 1.818146 -0.635364
0.495433 1.811567 -0.633150
0.503470 1.806196 -0.631274
0.511662 1.801408 -0.629569
0.519988 1.797146 -0.628020
0.525691 1.786550 -0.624784
0.533265 1.780915 -0.622903
0.541248 1.776524 -0.621378
0.548808 1.771361 -0.619668
0.556743 1.767354 -0.618294
0.563556 1.760993 -0.616315
0.569333 1.752581 -0.613814
0.577563 1.750136 -0.612943
0.586187 1.748840 -0.612412
0.593799 1.745545 -0.611376
0.601477 1.742702 -0.610495
0.608368 1.738452 -0.609272
-0.889152 0.916950 -0.389487
-0.887644 0.922805 -0.391123
-0.884360 0.926374 -0.392168
-0.880827 0.929746 -0.393181
-0.877238 0.933184 -0.394233
-0.872074 0.934504 -0.394737
-0.867333 0.936533 -0.395450
-0.865179 0.942448 -0.397225
-0.859201 0.942891 -0.397547
-0.856890 0.948858 -0.399373
-0.852135 0.951308 -0.400266
-0.850358 0.958366 -0.402417
-0.847029 0.963211 -0.403986
-0.842318 0.966030 -0.405019
-0.837825 0.969259 -0.406174
-0.835188 0.975497 -0.408154
-0.831789 0.980641 -0.409847
-0.828020 0.985283 -0.411412
-0.824306 0.990098 -0.413030
-0.819780 0.993647 -0.414310
-0.815028 0.996864 -0.415504
-0.810359 1.000254 -0.416748
-0.805523 1.003389 -0.417924
-0.801660 1.008227 -0.419567
-0.796657 1.011131 -0.420682
-0.795116 1.020157 -0.423473
-0.790938 1.024620 -0.425016
-0.785485 1.026816 -0.425935
-0.780182 1.029273 -0.426924
-0.775442 1.032756 -0.428192
-0.771268 1.037311 -0.429752
-0.770350 1.048064 -0.433018
-0.766679 1.053724 -0.434880
-0.760372 1.054336 -0.435344
-0.757487 1.061597 -0.437641
-0.753071 1.065918 -0.439122
-0.749815 1.072595 -0.441252
-0.745399 1.076999 -0.442748
-0.740991 1.081448 -0.444253
-0.735803 1.084305 -0.445311
-0.730848 1.087646 -0.446499
-0.726582 1.092464 -0.448092
-0.722787 1.098344 -0.449977
-0.718490 1.103198 -0.451572
-0.713738 1.107090 -0.452894
-0.708838 1.110674 -0.454125
-0.704295 1.115087 -0.455583
-0.699941 1.119976 -0.457169
-0.696628 1.127354 -0.459447
-0.691613 1.130823 -0.460628
-0.688267 1.138317 -0.462931
-0.684576 1.145106 -0.465032
-0.680280 1.150517 -0.466744
-0.675320 1.154346 -0.468008
-0.669313 1.155559 -0.468533
-0.664941 1.160937 -0.470222
-0.661527 1.168899 -0.472634
-0.656841 1.173658 -0.474141
-0.652594 1.179668 -0.475997
-0.647677 1.183963 -0.477367
-0.642996 1.188974 -0.478933
-0.638218 1.193799 -0.480444
-0.633809 1.199757 -0.482271
-0.629344 1.205674 -0.484082
-0.624704 1.211202 -0.485780
-0.620484 1.218092 -0.487859
-0.614943 1.221142 -0.488852
-0.609440 1.224350 -0.489885
-0.605142 1.231369 -0.491991
-0.599978 1.235812 -0.493366
-0.597182 1.248003 -0.496928
-0.591480 1.250997 -0.497888
-0.585550 1.253276 -0.498642
-0.580157 1.257410 -0.499917
-0.576645 1.268149 -0.503059
-0.571803 1.274533 -0.504966
-0.566194 1.278345 -0.506142
-0.560262 1.281063 -0.507005
-0.555982 1.289993 -0.509625
-0.550170 1.293393 -0.510677
-0.544712 1.298245 -0.512137
-0.539685 1.304944 -0.514118
-0.534793 1.312414 -0.516315
-0.529910 1.320178 -0.518594
-0.524209 1.324781 -0.519975
-0.519439 1.333531 -0.522529
-0.513905 1.339263 -0.524225
-0.508497 1.345769 -0.526139
-0.502559 1.350092 -0.527431
-0.497237 1.357461 -0.529586
-0.491675 1.363978 -0.531498
-0.485661 1.368539 -0.532852
-0.480141 1.375778 -0.534964
-0.474567 1.383057 -0.537087
-0.468286 1.386904 -0.538233
-0.461962 1.390679 -0.539356
-0.457220 1.403507 -0.543050
-0.451329 1.410373 -0.545049
-0.445132 1.415767 -0.546627
-0.439163 1.422835 -0.548680
-0.432793 1.427756 -0.550121
-0.426422 1.432931 -0.551632
-0.420502 1.441439 -0.554090
-0.414072 1.446916 -0.555685
-0.407966 1.455065 -0.558037
-0.401666 1.462311 -0.560132
-0.395381 1.470163 -0.562397
-0.389000 1.477799 -0.564600
-0.382778 1.487348 -0.567345
-0.375839 1.491352 -0.568512
-0.370155 1.507176 -0.573039
-0.363629 1.516321 -0.575666
-0.356733 1.522573 -0.577467
-0.349589 1.526767 -0.578682
-0.343240 1.540231 -0.582533
-0.336096 1.545778 -0.584129
-0.329550 1.559416 -0.588026
-0.322510 1.568148 -0.590526
-0.315474 1.578072 -0.593363
-0.308086 1.583962 -0.595051
-0.301123 1.597775 -0.598991
-0.293923 1.609626 -0.602372
-0.286220 1.613673 -0.603529
-0.279028 1.629655 -0.608082
-0.271261 1.635227 -0.609669
-0.263627 1.645840 -0.612690
-0.255883 1.656080 -0.615602
-0.248210 1.672575 -0.620292
-0.240254 1.683123 -0.623287
-0.232126 1.689230 -0.625016
-0.223988 1.699115 -0.627818
-0.215848 1.721569 -0.634194
-0.207454 1.726320 -0.635529
-0.198969 1.750702 -0.642447
-0.190437 1.749498 -0.642082
-0.181716 1.765225 -0.646532
-0.172977 1.773125 -0.648751
-0.163960 1.790481 -0.653658
-0.155064 1.796988 -0.655474
-0.145953 1.808424 -0.658689
-0.136813 1.817619 -0.661262
-0.127437 1.830441 -0.664863
-0.118044 1.840933 -0.667797
-0.108595 1.850526 -0.670472
-0.099116 1.858989 -0.672820
-0.088992 1.876786 -0.677818
-0.079233 1.886301 -0.680456
-0.069193 1.898500 -0.683852
-0.059444 1.905178 -0.685674
-0.048861 1.921506 -0.690233
-0.038905 1.928460 -0.692122
-0.028770 1.936622 -0.694349
-0.018098 1.949617 -0.697942
-0.007646 1.959036 -0.700514
0.002338 1.962986 -0.701527
0.014043 1.982415 -0.706927
0.024284 1.987151 -0.708149
0.034820 1.993928 -0.709944
0.045339 1.999954 -0.711519
0.055226 2.000478 -0.711526
0.064510 1.996317 -0.710199
0.075254 2.002994 -0.711937
0.086107 2.009890 -0.713730
0.099843 2.035820 -0.720906
0.110322 2.038552 -0.721501
0.121318 2.044308 -0.722945
0.134039 2.060265 -0.727266
0.144593 2.062174 -0.727603
0.154555 2.060400 -0.726889
0.164145 2.056504 -0.725568
0.173534 2.051590 -0.723951
0.182715 2.045698 -0.722050
0.192092 2.041008 -0.720482
0.201379 2.035973 -0.718808
0.210377 2.029615 -0.716754
0.219399 2.023554 -0.714775
0.228617 2.018571 -0.713093
0.238038 2.014625 -0.711695
0.247401 2.010453 -0.710225
0.256628 2.005734 -0.708592
0.264971 1.997261 -0.705896
0.273856 1.991301 -0.703899
0.282821 1.985782 -0.702017
0.291200 1.977970 -0.699484
0.300094 1.972381 -0.697568
0.308849 1.966334 -0.695515
0.317187 1.958790 -0.693035
0.325547 1.951477 -0.690613
0.333791 1.943877 -0.688103
0.342020 1.936370 -0.685614
0.350294 1.929155 -0.683199
0.358489 1.921797 -0.680738
0.366582 1.914217 -0.678210
0.374790 1.907161 -0.675823
0.382669 1.899141 -0.673162
0.391374 1.893939 -0.671281
0.400538 1.890249 -0.669817
0.407666 1.880221 -0.666586
0.414497 1.869505 -0.663163
0.422282 1.861914 -0.660607
0.431105 1.857556 -0.658947
0.439488 1.851966 -0.656944
0.447698 1.845979 -0.654832
0.456029 1.840455 -0.652850
0.464331 1.834963 -0.650880
0.472292 1.828660 -0.648690
0.480025 1.821899 -0.646380
0.488222 1.816558 -0.644470
0.496339 1.811159 -0.642553
0.503202 1.802688 -0.639801
0.511989 1.799392 -0.638486
0.520517 1.795587 -0.637044
0.526147 1.784761 -0.633692
0.533865 1.779420 -0.631864
0.541713 1.774639 -0.630209
0.549410 1.769739 -0.628545
0.557134 1.765165 -0.626992
0.565592 1.762568 -0.626007
0.572304 1.756196 -0.624015
0.578390 1.748745 -0.621759
0.586517 1.746250 -0.620886
0.595622 1.746197 -0.620711
0.602941 1.742460 -0.619563
0.612135 1.743114 -0.619646
-0.888092 0.913513 -0.393961
-0.887750 0.920985 -0.396074
-0.885095 0.925455 -0.397387
-0.882042 0.929535 -0.398613
-0.878031 0.932412 -0.399531
-0.873865 0.935198 -0.400442
-0.869332 0.937578 -0.401261
-0.865384 0.940921 -0.402361
-0.862314 0.945677 -0.403867
-0.858369 0.949275 -0.405071
-0.853825 0.952084 -0.406073
-0.850757 0.957222 -0.407729
-0.848154 0.963199 -0.409631
-0.844404 0.967541 -0.411094
-0.839815 0.970669 -0.412232
-0.835945 0.974999 -0.413711
-0.831861 0.979073 -0.415128
-0.828930 0.985078 -0.417087
-0.824877 0.989361 -0.418576
-0.821269 0.994443 -0.420291
-0.816181 0.997135 -0.421347
-0.810762 0.999286 -0.422254
-0.806268 1.003019 -0.423603
-0.801184 1.005767 -0.424678
-0.797667 1.011255 -0.426519
-0.795427 1.019062 -0.429008
-0.791045 1.023165 -0.430463
-0.786214 1.026488 -0.431697
-0.780659 1.028499 -0.432562
-0.775479 1.031180 -0.433612
-0.771543 1.036177 -0.435309
-0.768479 1.042865 -0.437479
-0.765883 1.050531 -0.439923
-0.762759 1.057284 -0.442107
-0.757576 1.060090 -0.443177
-0.754392 1.066845 -0.445356
-0.749992 1.071249 -0.446869
-0.745727 1.075957 -0.448463
-0.741607 1.081000 -0.450148
-0.737368 1.085840 -0.451772
-0.732466 1.089326 -0.453008
-0.727484 1.092653 -0.454193
-0.722723 1.096459 -0.455510
-0.718776 1.102066 -0.457334
-0.714155 1.106249 -0.458748
-0.709808 1.111078 -0.460342
-0.705049 1.115017 -0.461678
-0.700467 1.119396 -0.463135
-0.696490 1.125224 -0.465001
-0.693253 1.132886 -0.467385
-0.689472 1.139376 -0.469432
-0.684823 1.143863 -0.470903
-0.680146 1.148331 -0.472364
-0.675181 1.152136 -0.473632
-0.670297 1.156181 -0.474963
-0.667372 1.165296 -0.477741
-0.662562 1.169699 -0.479168
-0.657946 1.174672 -0.480753
-0.653417 1.179954 -0.482423
-0.648238 1.183563 -0.483611
-0.643089 1.187296 -0.484829
-0.638501 1.192645 -0.486507
-0.634633 1.200140 -0.488797
-0.629405 1.203880 -0.490007
-0.625288 1.210931 -0.492164
-0.620789 1.217004 -0.494036
-0.615459 1.220702 -0.495223
-0.610002 1.224069 -0.496311
-0.605088 1.229179 -0.497897
-0.600507 1.235463 -0.499818
-0.595947 1.241965 -0.501799
-0.591213 1.248065 -0.503661
-0.585829 1.252148 -0.504939
-0.581634 1.260357 -0.507404
-0.577105 1.267652 -0.509602
-0.572007 1.273152 -0.511281
-0.566549 1.277514 -0.512629
-0.561629 1.283947 -0.514571
-0.557984 1.295320 -0.517936
-0.550661 1.293124 -0.517385
-0.544780 1.296371 -0.518401
-0.539605 1.302482 -0.520241
-0.535153 1.311705 -0.522977
-0.530124 1.318886 -0.525121
-0.524858 1.325328 -0.527050
-0.519091 1.329850 -0.528423
-0.514081 1.337839 -0.530795
-0.508746 1.344681 -0.532834
-0.503296 1.351264 -0.534796
-0.497990 1.358776 -0.537025
-0.492025 1.363437 -0.538429
-0.486080 1.368375 -0.539910
-0.480643 1.376075 -0.542188
-0.475229 1.384245 -0.544600
-0.468787 1.387325 -0.545539
-0.462304 1.390298 -0.546445
-0.457682 1.403843 -0.550407
-0.451662 1.410029 -0.552240
-0.445518 1.415796 -0.553949
-0.439376 1.421870 -0.555746
-0.432922 1.426299 -0.557065
-0.426578 1.431671 -0.558656
-0.420683 1.440384 -0.561212
-0.414519 1.447755 -0.563378
-0.408204 1.454511 -0.565365
-0.402184 1.463910 -0.568115
-0.395671 1.470136 -0.569946
-0.389619 1.480523 -0.572980
-0.383206 1.488669 -0.575364
-0.376553 1.495349 -0.577321
-0.370277 1.506025 -0.580435
-0.363782 1.515526 -0.583207
-0.356961 1.522610 -0.585277
-0.350101 1.529951 -0.587421
-0.343301 1.538683 -0.589966
-0.336274 1.545674 -0.592005
-0.329211 1.552975 -0.594133
-0.322256 1.562589 -0.596929
-0.315499 1.576283 -0.600905
-0.308188 1.583425 -0.602981
-0.301140 1.595995 -0.606628
-0.293629 1.602300 -0.608459
-0.286949 1.626118 -0.615361
-0.279056 1.628398 -0.616022
-0.271406 1.637009 -0.618515
-0.263714 1.646604 -0.621292
-0.255929 1.656069 -0.624028
-0.248328 1.675773 -0.629728
-0.240139 1.676939 -0.630057
