ply
format ascii 1.0
comment ---
element vertex 1696
property float x
property float y
property float z
element face 0
property list uchar uint vertex_indices
end_header
-0.178461 1.486150 -0.811928
-0.170259 1.484464 -0.812478
-0.161678 1.479499 -0.811570
-0.153689 1.478982 -0.812631
-0.146398 1.484459 -0.816361
-0.138303 1.482908 -0.816964
-0.129129 1.470594 -0.812752
-0.121573 1.473360 -0.815274
-0.113390 1.469505 -0.814830
-0.104569 1.457744 -0.810825
-0.096115 1.448779 -0.808059
-0.088175 1.445099 -0.807664
-0.081576 1.459278 -0.815341
-0.074647 1.470516 -0.821709
-0.066323 1.460844 -0.818606
-0.058624 1.460218 -0.819601
-0.050867 1.458123 -0.819928
-0.042629 1.444981 -0.815208
-0.034971 1.442351 -0.815276
-0.027416 1.441550 -0.816178
-0.019906 1.441646 -0.817493
-0.012489 1.444989 -0.820303
-0.005143 1.453034 -0.825287
0.002374 1.455015 -0.827488
0.010139 1.435782 -0.819882
0.017599 1.434455 -0.820543
0.025037 1.438179 -0.823549
0.032452 1.427983 -0.820088
0.039798 1.421755 -0.818462
0.047052 1.413559 -0.815908
0.054280 1.408341 -0.814736
0.061305 1.396942 -0.810661
0.068580 1.397890 -0.812366
0.075910 1.400094 -0.814666
0.083328 1.403912 -0.817734
0.090371 1.398353 -0.816385
0.096971 1.384918 -0.811302
0.103994 1.381612 -0.811000
0.111431 1.385680 -0.814197
0.118553 1.384168 -0.814750
0.125752 1.383862 -0.815878
0.132758 1.380908 -0.815745
0.139704 1.377482 -0.815385
0.146561 1.373309 -0.814664
0.153148 1.366510 -0.812678
0.159697 1.359936 -0.810792
0.166898 1.360392 -0.812287
0.173757 1.357458 -0.812149
0.180383 1.352583 -0.811070
0.187414 1.351513 -0.811831
0.193756 1.344742 -0.809825
0.200404 1.340839 -0.809207
0.207261 1.338716 -0.809453
0.214331 1.338204 -0.810487
0.221431 1.337831 -0.811592
0.228329 1.335995 -0.811983
0.234769 1.331179 -0.810911
0.241122 1.326017 -0.809664
0.248176 1.325392 -0.810649
0.254662 1.321311 -0.809930
0.260743 1.315046 -0.808126
0.267682 1.313842 -0.808825
0.275691 1.318429 -0.812405
0.282369 1.315614 -0.812312
0.289018 1.312711 -0.812174
0.295779 1.310414 -0.812339
0.302230 1.306633 -0.811759
0.308237 1.300837 -0.810166
0.314662 1.297166 -0.809635
0.321020 1.293273 -0.808990
0.327210 1.288733 -0.808015
0.334160 1.287578 -0.808749
0.341714 1.288922 -0.810752
0.348759 1.288021 -0.811622
0.354476 1.281734 -0.809754
0.361387 1.280319 -0.810363
0.368326 1.278981 -0.811013
0.374992 1.276582 -0.811122
0.382412 1.276978 -0.812665
0.388847 1.273706 -0.812329
0.395158 1.270037 -0.811787
0.402638 1.270489 -0.813368
0.408685 1.265954 -0.812378
0.414623 1.261142 -0.811239
0.422135 1.261589 -0.812826
0.427429 1.254794 -0.810652
0.433627 1.251024 -0.810045
0.440200 1.248469 -0.810071
0.444268 1.238284 -0.806103
0.451125 1.236733 -0.806647
0.460189 1.241661 -0.810597
0.466967 1.239725 -0.810950
0.474907 1.241084 -0.813042
0.483123 1.243096 -0.815487
0.490229 1.241906 -0.816247
0.497293 1.240564 -0.816929
0.504964 1.240811 -0.818458
0.507434 1.227304 -0.812662
0.516437 1.231046 -0.816057
0.524918 1.233269 -0.818653
0.531423 1.230393 -0.818525
0.537565 1.226631 -0.817919
0.542652 1.220338 -0.815949
0.549163 1.217577 -0.815876
0.555029 1.213295 -0.814981
0.560771 1.208776 -0.813954
0.565644 1.202316 -0.811870
0.573516 1.202762 -0.813535
0.581322 1.202978 -0.815084
0.588341 1.201383 -0.815649
0.595249 1.199520 -0.816071
0.600168 1.193371 -0.814142
0.607072 1.191516 -0.814568
0.613755 1.189177 -0.814731
0.621213 1.188428 -0.815773
0.626004 1.182204 -0.813790
0.632036 1.178561 -0.813231
0.639799 1.178372 -0.814592
0.645891 1.174847 -0.814101
0.651938 1.171252 -0.813571
0.658778 1.169191 -0.813898
0.665222 1.166362 -0.813798
0.670623 1.161592 -0.812608
0.675467 1.155842 -0.810862
0.681084 1.151564 -0.809942
0.687764 1.149222 -0.810116
0.691565 1.141763 -0.807390
0.698200 1.139369 -0.807534
0.705596 1.138278 -0.808424
0.712345 1.136031 -0.808661
0.718216 1.132278 -0.808040
0.725428 1.130777 -0.808710
0.734795 1.132794 -0.811411
0.741973 1.131115 -0.811998
0.744676 1.122176 -0.808395
0.750291 1.118007 -0.807542
0.756836 1.115322 -0.807551
0.767024 1.118300 -0.810859
0.772966 1.114582 -0.810282
0.776496 1.107187 -0.807557
0.782045 1.102917 -0.806655
0.786578 1.097146 -0.804872
0.792352 1.093247 -0.804187
0.800669 1.093061 -0.805698
0.798084 1.077056 -0.797860
0.795632 1.061499 -0.790256
0.770074 1.013553 -0.763361
0.774695 1.008724 -0.762040
0.780648 1.005756 -0.761831
0.783443 0.998448 -0.759027
0.788490 0.994256 -0.758087
0.790936 0.986586 -0.755055
0.794760 0.980814 -0.753161
0.799724 0.976571 -0.752189
0.806139 0.974210 -0.752362
0.811199 0.970069 -0.751461
0.815805 0.965348 -0.750209
0.820927 0.961282 -0.749360
0.825729 0.956809 -0.748264
0.829107 0.950584 -0.746095
0.835522 0.948090 -0.746223
0.839564 0.942692 -0.744565
0.844364 0.938215 -0.743479
0.849843 0.934533 -0.742890
0.854589 0.929972 -0.741760
0.859794 0.925938 -0.740963
0.863703 0.920403 -0.739231
0.861966 0.908494 -0.733488
0.854004 0.889760 -0.723416
0.857853 0.884401 -0.721759
0.875688 0.894392 -0.729844
0.852667 0.859734 -0.709564
0.860820 0.859175 -0.710947
0.866232 0.855617 -0.710425
0.878300 0.859034 -0.714393
0.883432 0.855062 -0.713633
0.885913 0.848344 -0.711102
0.883206 0.836380 -0.705162
0.901425 0.845677 -0.713027
0.903074 0.838147 -0.709966
0.914854 0.840690 -0.713490
0.922766 0.839307 -0.714465
0.921268 0.828762 -0.709413
0.921680 0.820179 -0.705629
0.926115 0.815505 -0.704420
0.930777 0.811066 -0.703361
0.943220 0.813868 -0.707134
0.954821 0.815773 -0.710332
0.949091 0.801822 -0.702884
0.967146 0.809504 -0.709983
0.966605 0.800419 -0.705770
0.970746 0.795605 -0.704422
0.972623 0.788878 -0.701752
0.984536 0.790934 -0.705060
0.999812 0.795810 -0.710311
0.988797 0.778307 -0.700169
0.978706 0.761920 -0.690711
1.007602 0.778252 -0.703850
1.024204 0.784173 -0.709810
1.031119 0.782111 -0.710213
1.031901 0.775167 -0.707171
-0.344790 1.433054 -0.767767
-0.340682 1.443816 -0.773593
-0.334925 1.448650 -0.776896
-0.329663 1.456186 -0.781375
-0.321027 1.450003 -0.779956
-0.313276 1.447823 -0.780261
-0.303577 1.437220 -0.776919
-0.297320 1.442212 -0.780328
-0.288207 1.434407 -0.778186
-0.278646 1.424370 -0.775062
-0.275090 1.443595 -0.784692
-0.271549 1.464133 -0.794929
-0.264457 1.467618 -0.797733
-0.255075 1.459301 -0.795365
-0.247710 1.461711 -0.797701
-0.240035 1.462652 -0.799394
-0.232634 1.465345 -0.801862
-0.221490 1.445894 -0.794541
-0.214440 1.450535 -0.797864
-0.207249 1.454617 -0.800946
-0.200241 1.460213 -0.804709
-0.193162 1.465710 -0.808437
-0.185768 1.469364 -0.811351
-0.177003 1.463128 -0.809847
-0.168911 1.461499 -0.810397
-0.161291 1.463426 -0.812541
-0.153840 1.466834 -0.815355
-0.145402 1.461840 -0.814387
-0.137242 1.458781 -0.814285
-0.128074 1.445599 -0.809596
-0.121075 1.452818 -0.814135
-0.113439 1.453883 -0.815892
-0.105542 1.451954 -0.816288
-0.096265 1.433075 -0.808954
-0.088564 1.431664 -0.809567
-0.081415 1.437412 -0.813455
-0.073855 1.437786 -0.814890
-0.065997 1.433272 -0.814081
-0.058794 1.439096 -0.818024
-0.051131 1.437057 -0.818353
-0.043035 1.425245 -0.814165
-0.035415 1.421571 -0.813724
-0.028168 1.426647 -0.817337
-0.020689 1.425844 -0.818228
-0.013238 1.425490 -0.819329
-0.005745 1.422662 -0.819279
0.001923 1.407504 -0.813465
0.009253 1.407377 -0.814663
0.016537 1.413243 -0.818672
0.023886 1.413129 -0.819885
0.031235 1.413910 -0.821522
0.038504 1.404599 -0.818404
0.045766 1.401828 -0.818363
0.052888 1.393061 -0.815481
0.060051 1.389785 -0.815191
0.067023 1.380918 -0.812241
0.074160 1.379580 -0.812863
0.081404 1.381272 -0.814930
0.088578 1.380879 -0.816008
0.095401 1.373324 -0.813660
0.102208 1.366800 -0.811797
0.109201 1.364437 -0.811924
0.116429 1.366009 -0.813945
0.123453 1.364294 -0.814387
0.130230 1.359397 -0.813293
0.137258 1.358176 -0.813973
0.144079 1.354538 -0.813482
0.150382 1.345438 -0.810334
0.156570 1.336001 -0.807010
0.163808 1.337914 -0.809208
0.170407 1.333455 -0.808300
0.177432 1.333168 -0.809431
0.184129 1.329950 -0.809127
0.190912 1.327609 -0.809252
0.197164 1.321132 -0.807341
0.203884 1.318630 -0.807383
0.210985 1.319007 -0.808847
0.218541 1.322471 -0.811846
0.225278 1.319984 -0.811902
0.231142 1.311818 -0.809136
0.237605 1.307899 -0.808473
0.244705 1.308051 -0.809839
0.251535 1.306484 -0.810350
0.257932 1.302398 -0.809601
0.264867 1.301471 -0.810435
0.272045 1.301815 -0.811910
0.278852 1.300078 -0.812342
0.285678 1.298434 -0.812822
0.292126 1.294880 -0.812338
0.298209 1.289630 -0.810992
0.304927 1.287574 -0.811262
0.311239 1.283640 -0.810578
0.317429 1.279251 -0.809659
0.323427 1.274126 -0.808360
0.330080 1.271976 -0.808577
0.338133 1.275722 -0.811820
0.344696 1.273079 -0.811791
0.350830 1.268730 -0.810884
0.357825 1.267874 -0.811775
0.364420 1.265421 -0.811844
0.370800 1.262171 -0.811500
0.377736 1.261019 -0.812244
0.383075 1.254051 -0.809966
0.389617 1.251537 -0.809999
0.396479 1.250151 -0.810621
0.403109 1.247945 -0.810816
0.410065 1.246828 -0.811582
0.416001 1.242322 -0.810572
0.422002 1.238107 -0.809711
0.429246 1.237899 -0.810959
0.435695 1.235149 -0.810868
0.441325 1.229914 -0.809462
0.447408 1.226140 -0.808825
0.455227 1.227539 -0.810934
0.463415 1.229883 -0.813556
0.471035 1.230450 -0.815241
0.478312 1.229963 -0.816368
0.485592 1.229421 -0.817471
0.492522 1.227874 -0.818038
0.496259 1.217774 -0.814004
0.501224 1.211146 -0.811826
0.510233 1.215110 -0.815364
0.518739 1.217601 -0.818119
0.525121 1.214612 -0.817912
0.531431 1.211463 -0.817617
0.538451 1.210062 -0.818273
0.543788 1.204594 -0.816712
0.550226 1.201815 -0.816616
0.554536 1.194085 -0.813805
0.561263 1.192055 -0.814116
0.569055 1.192426 -0.815750
0.576449 1.191827 -0.816857
0.580867 1.184618 -0.814313
0.586790 1.180806 -0.813642
0.593896 1.179563 -0.814396
0.599136 1.174337 -0.812937
0.605163 1.170822 -0.812427
0.612193 1.169396 -0.813084
0.617884 1.165215 -0.812202
0.624259 1.162446 -0.812110
0.632110 1.162600 -0.813663
0.640000 1.162755 -0.815226
0.647095 1.161303 -0.815889
0.653430 1.158368 -0.815716
0.660012 1.155900 -0.815809
0.666218 1.152723 -0.815502
0.670239 1.145537 -0.812910
0.674766 1.139373 -0.810892
0.680386 1.135246 -0.810035
0.686319 1.131698 -0.809508
0.692707 1.128961 -0.809447
0.700417 1.128500 -0.810703
0.704925 1.122505 -0.808768
0.711778 1.120536 -0.809160
0.717403 1.116488 -0.808349
0.724053 1.114151 -0.808534
0.728353 1.107957 -0.806474
0.734319 1.104516 -0.806018
0.742027 1.103853 -0.807190
0.748898 1.101808 -0.807562
0.756724 1.101219 -0.808796
0.761769 1.096278 -0.807473
0.769884 1.096045 -0.808933
0.774207 1.090022 -0.806972
0.778524 1.084039 -0.805030
0.782112 1.077031 -0.802474
0.786258 1.070906 -0.800438
0.785889 1.058318 -0.794527
0.781944 1.040818 -0.785646
0.769426 1.011513 -0.769622
0.772694 1.004789 -0.767147
0.777134 0.999743 -0.765681
0.782677 0.996229 -0.765143
0.785933 0.989612 -0.762723
0.791243 0.985796 -0.762004
0.793587 0.978048 -0.758888
0.798906 0.974271 -0.758195
0.805968 0.972742 -0.758886
0.812756 0.970803 -0.759338
0.819402 0.968633 -0.759658
0.822260 0.961663 -0.757015
0.824170 0.953567 -0.753669
0.831037 0.951637 -0.754151
0.832701 0.943325 -0.750662
0.837910 0.939356 -0.749881
0.843302 0.935590 -0.749233
0.846446 0.929155 -0.746912
0.851435 0.924907 -0.745968
0.856173 0.920356 -0.744838
0.842833 0.885459 -0.726160
0.844411 0.877626 -0.722896
0.842048 0.865495 -0.716869
0.844945 0.859276 -0.714616
0.849761 0.855168 -0.713720
0.844947 0.840720 -0.706143
0.843109 0.829633 -0.700710
0.863398 0.841915 -0.710456
0.871629 0.841315 -0.711866
0.860564 0.820788 -0.700249
0.882784 0.834464 -0.711031
0.880381 0.822967 -0.705303
0.890552 0.824146 -0.707928
0.906997 0.831399 -0.714604
0.913281 0.828494 -0.714574
0.913041 0.819263 -0.710325
0.916790 0.813952 -0.708679
0.919029 0.807244 -0.706087
0.927869 0.806778 -0.707690
0.938267 0.807695 -0.710241
0.945036 0.805202 -0.710492
0.953600 0.804328 -0.711847
0.952342 0.794596 -0.707153
0.959084 0.792128 -0.707402
0.960652 0.785117 -0.704518
0.964407 0.780121 -0.702995
0.978717 0.784303 -0.707810
0.992989 0.788354 -0.712551
0.989516 0.777315 -0.706778
0.988977 0.768947 -0.702816
0.997252 0.768059 -0.704058
1.020997 0.779914 -0.714260
1.029240 0.778959 -0.715446
1.037545 0.778106 -0.716682
-0.350288 1.447619 -0.781931
-0.341826 1.441107 -0.780338
-0.335913 1.445225 -0.783362
-0.330147 1.450553 -0.786926
-0.324141 1.455492 -0.790333
-0.316696 1.454780 -0.791280
-0.308521 1.451169 -0.790959
-0.299098 1.442078 -0.788228
-0.289165 1.430522 -0.784400
-0.279356 1.419295 -0.780699
-0.271097 1.415345 -0.780195
-0.261330 1.403886 -0.776362
-0.252345 1.396050 -0.774118
-0.245486 1.399205 -0.776744
-0.240452 1.412612 -0.783940
-0.235675 1.428380 -0.792211
-0.222117 1.439383 -0.799645
-0.214125 1.438080 -0.800323
-0.206849 1.441269 -0.803018
-0.197585 1.431649 -0.799951
-0.191583 1.443508 -0.806558
-0.183427 1.441037 -0.806707
-0.176281 1.445723 -0.810094
-0.167257 1.436437 -0.807149
-0.159884 1.439388 -0.809751
-0.151312 1.432590 -0.807918
-0.144982 1.444447 -0.814586
-0.136522 1.438034 -0.812922
-0.128492 1.434932 -0.812765
-0.120650 1.433249 -0.813254
-0.113085 1.434149 -0.814928
-0.105082 1.430110 -0.814329
-0.096758 1.421594 -0.811659
-0.089215 1.421656 -0.812940
-0.081705 1.421987 -0.814348
-0.073827 1.416825 -0.813208
-0.065982 1.411140 -0.811818
-0.058804 1.415639 -0.815162
-0.051324 1.415122 -0.816176
-0.042811 1.392919 -0.807053
-0.035585 1.394987 -0.809260
-0.028720 1.406839 -0.816063
-0.021099 1.399166 -0.813711
-0.013668 1.395248 -0.813116
-0.006398 1.396274 -0.814849
0.000911 1.395395 -0.815686
0.008244 1.391427 -0.815061
0.015535 1.387078 -0.814251
0.022766 1.387339 -0.815627
0.029961 1.373245 -0.810171
0.037138 1.375932 -0.812699
0.044413 1.384210 -0.817906
0.051581 1.381835 -0.818030
0.058490 1.369178 -0.813221
0.065709 1.372127 -0.815893
0.072483 1.360667 -0.811635
0.079504 1.358653 -0.811917
0.086800 1.363405 -0.815469
0.093820 1.361360 -0.815741
0.100448 1.352240 -0.812582
0.106947 1.342423 -0.809072
0.113545 1.335633 -0.807020
0.120719 1.338134 -0.809493
0.127834 1.339391 -0.811366
0.135009 1.341140 -0.813487
0.141540 1.334898 -0.811694
0.147973 1.328160 -0.809650
0.154821 1.326457 -0.810077
0.161409 1.322191 -0.809240
0.167701 1.315410 -0.807157
0.173964 1.308898 -0.805198
0.181399 1.313058 -0.808527
0.187946 1.309350 -0.807956
0.194440 1.305423 -0.807274
0.200828 1.300887 -0.806284
0.208301 1.304588 -0.809409
0.215920 1.308939 -0.812871
0.222408 1.305136 -0.812253
0.227761 1.293985 -0.807938
0.233752 1.287553 -0.805983
0.241062 1.289580 -0.808290
0.247133 1.283963 -0.806740
0.253907 1.282662 -0.807371
0.260375 1.279618 -0.807119
0.267223 1.278723 -0.807958
0.275222 1.283891 -0.811892
0.281309 1.278801 -0.810601
0.286266 1.268213 -0.806492
0.293116 1.267338 -0.807346
0.299111 1.262343 -0.806087
0.306024 1.261760 -0.807094
0.313730 1.264703 -0.809923
0.320284 1.262319 -0.810010
0.326591 1.258888 -0.809555
0.333686 1.258849 -0.810858
0.340357 1.256969 -0.811208
0.347030 1.255089 -0.811561
0.353332 1.251737 -0.811146
0.360774 1.252842 -0.813059
0.366825 1.248556 -0.812156
0.369351 1.231324 -0.804453
0.378111 1.237292 -0.808922
0.385146 1.236813 -0.810011
0.392305 1.236699 -0.811297
0.399199 1.235599 -0.812066
0.404344 1.228603 -0.809712
0.410404 1.224794 -0.809041
0.416905 1.222469 -0.809158
0.424815 1.224606 -0.811655
0.431816 1.223760 -0.812568
0.437764 1.219651 -0.811737
0.444306 1.217390 -0.811894
0.451337 1.216567 -0.812825
0.458638 1.216482 -0.814158
0.465201 1.214218 -0.814319
0.470866 1.209435 -0.813118
0.479352 1.212514 -0.816175
0.486225 1.211039 -0.816771
0.493756 1.211298 -0.818313
0.496364 1.198531 -0.812755
0.503584 1.198021 -0.813875
0.513849 1.205216 -0.819221
0.519088 1.199507 -0.817506
0.525213 1.196085 -0.817041
0.531914 1.194097 -0.817366
0.538353 1.191467 -0.817338
0.541508 1.181077 -0.813014
0.547581 1.177716 -0.812573
0.555459 1.178527 -0.814449
0.564836 1.182639 -0.818173
0.570132 1.177454 -0.816723
0.575058 1.171526 -0.814852
0.581372 1.168705 -0.814715
0.589548 1.169882 -0.816826
0.591661 1.158140 -0.811672
0.599900 1.159418 -0.813844
0.607798 1.159893 -0.815573
0.613513 1.155850 -0.814750
0.618545 1.150473 -0.813167
0.624482 1.146957 -0.812638
0.631808 1.146173 -0.813667
0.638714 1.144531 -0.814212
0.646249 1.144058 -0.815430
0.652425 1.140970 -0.815154
0.660035 1.140551 -0.816415
0.663470 1.132410 -0.813230
0.666005 1.122761 -0.809161
0.673950 1.122966 -0.810786
0.680389 1.120430 -0.810829
0.686308 1.116971 -0.810338
0.692253 1.113567 -0.809880
0.700172 1.113542 -0.811398
0.704018 1.106570 -0.808855
0.707941 1.099815 -0.806431
0.716943 1.101514 -0.808977
0.722741 1.097879 -0.808391
0.725753 1.089760 -0.805154
0.733139 1.088717 -0.806101
0.741084 1.088502 -0.807549
0.745213 1.082271 -0.805424
0.753445 1.082419 -0.807104
0.760055 1.080013 -0.807267
0.768092 1.079731 -0.808711
0.771292 1.072170 -0.805789
0.775526 1.066215 -0.803827
0.774391 1.052487 -0.797163
0.779767 1.048356 -0.796287
0.765294 1.015944 -0.778235
0.766379 1.006079 -0.773828
0.767996 0.997086 -0.769938
0.772573 0.992285 -0.768601
0.777971 0.988623 -0.767962
0.782761 0.984132 -0.766818
0.784545 0.975635 -0.763204
0.790783 0.973117 -0.763276
0.798215 0.972125 -0.764303
0.803316 0.968050 -0.763426
0.809346 0.965159 -0.763292
0.816418 0.963557 -0.763971
0.822880 0.961132 -0.764147
0.825420 0.953800 -0.761250
0.830943 0.950186 -0.760689
0.836006 0.945993 -0.759768
0.841457 0.942258 -0.759142
0.844522 0.935665 -0.756708
0.850369 0.932384 -0.756380
0.854605 0.927198 -0.754843
0.829345 0.868842 -0.722653
0.829495 0.859565 -0.718397
0.831133 0.852028 -0.715253
0.835402 0.847427 -0.714011
0.837873 0.840878 -0.711501
0.838094 0.831959 -0.707435
0.842000 0.827034 -0.705976
0.856251 0.832960 -0.711665
0.855299 0.822896 -0.706834
0.850454 0.808947 -0.699408
0.863708 0.813583 -0.704302
0.867636 0.808656 -0.702856
0.872345 0.804516 -0.701935
0.903890 0.826792 -0.718756
0.909224 0.822984 -0.718121
0.913821 0.818457 -0.717002
0.916500 0.812113 -0.714647
0.922753 0.809195 -0.714612
0.921829 0.799558 -0.709990
0.927990 0.796600 -0.709915
0.936428 0.795724 -0.711270
0.937695 0.788313 -0.708123
0.942400 0.784082 -0.707151
0.950787 0.783159 -0.708465
0.959193 0.782234 -0.709777
0.956688 0.771808 -0.704441
0.973085 0.769761 -0.706860
0.987481 0.773984 -0.711763
0.988452 0.766907 -0.708665
1.006763 0.774328 -0.715837
1.013278 0.771957 -0.716040
1.029178 0.777280 -0.721723
1.043409 0.781198 -0.726403
-0.348293 1.432612 -0.783308
-0.343760 1.441545 -0.788466
-0.337554 1.444451 -0.790989
-0.331443 1.448296 -0.793936
-0.326076 1.455873 -0.798542
-0.319404 1.458519 -0.800981
-0.312979 1.462759 -0.804134
-0.307133 1.470162 -0.808703
-0.298093 1.463475 -0.807011
-0.285402 1.439478 -0.797584
-0.273351 1.417676 -0.789098
-0.261800 1.397501 -0.781305
-0.253223 1.391670 -0.779916
-0.245139 1.388297 -0.779624
-0.237013 1.384672 -0.779212
-0.228809 1.380538 -0.778565
-0.220370 1.374919 -0.777239
-0.213832 1.380255 -0.780868
-0.202841 1.405279 -0.794680
-0.195084 1.404397 -0.795515
-0.188394 1.410647 -0.799604
-0.181875 1.418534 -0.804453
-0.174503 1.420794 -0.806737
-0.166650 1.419547 -0.807414
-0.158545 1.416146 -0.807099
-0.150968 1.416690 -0.808596
-0.143481 1.417960 -0.810430
-0.135168 1.411826 -0.808841
-0.128574 1.421136 -0.814401
-0.120301 1.414650 -0.812642
-0.111631 1.403173 -0.808552
-0.104470 1.406884 -0.811521
-0.097165 1.409187 -0.813840
-0.089662 1.409148 -0.815068
-0.082102 1.408160 -0.815854
-0.074043 1.399698 -0.813130
-0.066352 1.395368 -0.812337
-0.059103 1.397527 -0.814595
-0.051375 1.391060 -0.812787
-0.043666 1.383418 -0.810414
-0.036264 1.380713 -0.810370
-0.029096 1.383056 -0.812718
-0.021637 1.377268 -0.811206
-0.014253 1.371762 -0.809821
-0.007153 1.375567 -0.812873
0.000010 1.377695 -0.815132
0.007401 1.364243 -0.809935
0.014565 1.360766 -0.809503
0.021688 1.357982 -0.809401
0.028784 1.357304 -0.810313
0.035913 1.362825 -0.814217
0.042987 1.359151 -0.813689
0.049993 1.353714 -0.812303
0.057078 1.354343 -0.813855
0.064023 1.349534 -0.812768
0.070935 1.345157 -0.811886
0.077799 1.340623 -0.810923
0.084814 1.340657 -0.812189
0.091979 1.343737 -0.814950
0.098087 1.326070 -0.807540
0.104870 1.323099 -0.807326
0.111788 1.322661 -0.808359
0.118737 1.322655 -0.809608
0.125811 1.324246 -0.811650
0.132767 1.324021 -0.812799
0.139398 1.319806 -0.811973
0.145988 1.315510 -0.811103
0.152789 1.313827 -0.811530
0.159637 1.312690 -0.812231
0.165279 1.299955 -0.807135
0.171585 1.294405 -0.805619
0.178557 1.295068 -0.807215
0.185576 1.295960 -0.808932
0.190823 1.282457 -0.803402
0.197478 1.280766 -0.803814
0.205359 1.288181 -0.808831
0.212414 1.289043 -0.810548
0.219316 1.288690 -0.811654
0.224050 1.273878 -0.805409
0.229642 1.265458 -0.802398
0.236750 1.266881 -0.804401
0.244277 1.270622 -0.807597
0.250558 1.266783 -0.806920
0.256494 1.261130 -0.805308
0.263958 1.264069 -0.808111
0.270777 1.263314 -0.809020
0.276419 1.256409 -0.806756
0.282492 1.251952 -0.805750
0.289036 1.249939 -0.806007
0.295334 1.246759 -0.805659
0.301451 1.242806 -0.804907
0.309753 1.248865 -0.809374
0.316516 1.247721 -0.810093
0.323520 1.247584 -0.811343
0.330077 1.245474 -0.811563
0.336539 1.242974 -0.811578
0.341337 1.233781 -0.808068
0.348548 1.234426 -0.809735
0.354449 1.229895 -0.808672
0.361554 1.230020 -0.810072
0.365390 1.217952 -0.805004
0.372633 1.218647 -0.806705
0.381091 1.223543 -0.810653
0.388522 1.224590 -0.812560
0.395284 1.223224 -0.813183
0.400842 1.217794 -0.811629
0.406424 1.212569 -0.810179
0.413024 1.210738 -0.810551
0.420074 1.210318 -0.811685
0.426355 1.207444 -0.811497
0.433333 1.206724 -0.812475
0.439673 1.204034 -0.812388
0.443666 1.194434 -0.808542
0.451059 1.194948 -0.810193
0.457774 1.193433 -0.810743
0.466090 1.196385 -0.813740
0.472903 1.195019 -0.814381
0.478431 1.190135 -0.813091
0.483655 1.184521 -0.811394
0.491434 1.185727 -0.813454
0.498431 1.184801 -0.814344
0.506306 1.186068 -0.816453
0.514012 1.186799 -0.818274
0.519999 1.183188 -0.817687
0.526577 1.181054 -0.817921
0.531789 1.175633 -0.816319
0.536329 1.168708 -0.813870
0.542660 1.166089 -0.813827
0.550438 1.166796 -0.815655
0.556083 1.162585 -0.814719
0.562027 1.159089 -0.814185
0.568802 1.157452 -0.814701
0.576672 1.158166 -0.816554
0.580280 1.149662 -0.813176
0.586474 1.146782 -0.812988
0.595907 1.150666 -0.816662
0.603567 1.150729 -0.818168
0.608905 1.146006 -0.816937
0.613942 1.140734 -0.815387
0.617942 1.133474 -0.812686
0.621601 1.125665 -0.809660
0.629443 1.126053 -0.811362
0.637380 1.126542 -0.813132
0.645221 1.126768 -0.814760
0.651595 1.124195 -0.814767
0.654681 1.115581 -0.811252
0.660240 1.111590 -0.810427
0.665933 1.107864 -0.809756
0.673669 1.107769 -0.811218
0.679846 1.104879 -0.811044
0.685786 1.101579 -0.810630
0.692488 1.099582 -0.810988
0.700086 1.099072 -0.812233
0.703875 1.092151 -0.809677
0.709106 1.087689 -0.808578
0.715402 1.084992 -0.808532
0.720682 1.080644 -0.807501
0.726851 1.077735 -0.807333
0.734202 1.076674 -0.808279
0.733552 1.063112 -0.801701
0.742788 1.064983 -0.804420
0.748932 1.062032 -0.804236
0.754691 1.058486 -0.803696
0.764638 1.061169 -0.806949
0.766541 1.051876 -0.802919
0.766921 1.040489 -0.797594
0.768958 1.031653 -0.793813
0.761537 1.009461 -0.781811
0.761340 0.997840 -0.776268
0.764199 0.990641 -0.773435
0.768692 0.985764 -0.772033
0.774325 0.982462 -0.771609
0.778311 0.976925 -0.769798
0.781863 0.970840 -0.767644
0.784469 0.963549 -0.764732
0.791728 0.962401 -0.765667
0.799268 0.961549 -0.766801
0.803467 0.956356 -0.765212
0.808298 0.951980 -0.764140
0.815872 0.951036 -0.765248
0.822894 0.949336 -0.765890
0.826921 0.943905 -0.764168
0.832700 0.940619 -0.763816
0.833602 0.931451 -0.759701
0.843259 0.932772 -0.762319
0.850243 0.930828 -0.762856
0.856690 0.928199 -0.762964
0.798817 0.851534 -0.715057
0.801120 0.844869 -0.712422
0.819945 0.856860 -0.721954
0.816231 0.843383 -0.714886
0.822269 0.840845 -0.714967
0.831347 0.841584 -0.717217
0.835444 0.836829 -0.715863
0.833077 0.825168 -0.709935
0.839123 0.822552 -0.709992
0.845135 0.819860 -0.710009
0.848552 0.814440 -0.708212
0.850401 0.807432 -0.705347
0.854858 0.803122 -0.704290
0.857764 0.797254 -0.702182
0.859619 0.790375 -0.699382
0.882725 0.804435 -0.710809
0.897368 0.809886 -0.716447
0.909308 0.812538 -0.720212
0.902016 0.796742 -0.711336
0.907097 0.792855 -0.710611
0.910514 0.787423 -0.708815
0.914878 0.782910 -0.707645
0.918291 0.777558 -0.705881
0.916425 0.767488 -0.700806
0.930040 0.771424 -0.705510
0.939506 0.771561 -0.707568
0.949921 0.772491 -0.710190
0.924890 0.734817 -0.687346
0.944616 0.743938 -0.695725
0.970951 0.758441 -0.707994
0.979153 0.757541 -0.709264
0.987472 0.756766 -0.710606
1.013096 0.770184 -0.722189
1.012491 0.762120 -0.718239
1.038813 0.775863 -0.730096
-0.348516 1.426378 -0.788449
-0.344658 1.437821 -0.794777
-0.338892 1.442412 -0.798074
-0.332786 1.446211 -0.801029
-0.326795 1.451071 -0.804468
-0.321013 1.457435 -0.808591
-0.315129 1.464013 -0.812824
-0.309874 1.474070 -0.818635
-0.302854 1.476813 -0.821168
-0.296251 1.481971 -0.824797
-0.290172 1.490194 -0.829823
-0.283012 1.493750 -0.832747
-0.271616 1.476213 -0.826096
-0.237897 1.380178 -0.784905
-0.229469 1.374764 -0.783650
-0.220837 1.367974 -0.781755
-0.211601 1.357311 -0.778073
-0.203134 1.350684 -0.776227
-0.194960 1.345496 -0.775031
-0.188526 1.351215 -0.778857
-0.180288 1.396015 -0.801979
-0.174283 1.407348 -0.808467
-0.166372 1.405260 -0.808738
-0.158654 1.404439 -0.809596
-0.150906 1.403220 -0.810267
-0.142664 1.397602 -0.808882
-0.134639 1.393276 -0.808092
-0.126417 1.386577 -0.806183
-0.118766 1.384646 -0.806503
-0.111243 1.383691 -0.807280
-0.104136 1.387015 -0.810075
-0.096625 1.385900 -0.810779
-0.089398 1.387980 -0.812995
-0.082100 1.389240 -0.814827
-0.074206 1.382077 -0.812663
-0.066599 1.377950 -0.811932
-0.059290 1.377870 -0.813126
-0.051973 1.377403 -0.814137
-0.044350 1.370542 -0.812089
-0.037089 1.369927 -0.813026
-0.029773 1.367526 -0.813107
-0.022455 1.364130 -0.812707
-0.015126 1.358934 -0.811436
-0.007967 1.358147 -0.812288
-0.000754 1.353920 -0.811477
0.006458 1.346324 -0.809030
0.013569 1.340789 -0.807571
0.020593 1.341744 -0.809263
0.027622 1.342015 -0.810627
0.034620 1.336886 -0.809358
0.041571 1.332387 -0.808392
0.048537 1.331635 -0.809256
0.055612 1.336411 -0.812837
0.062537 1.333580 -0.812689
0.069295 1.326327 -0.810360
0.076014 1.319958 -0.808458
0.082834 1.317488 -0.808477
0.089405 1.310145 -0.806081
0.096219 1.308833 -0.806669
0.102902 1.305367 -0.806187
0.109980 1.308731 -0.809105
0.116795 1.307576 -0.809779
0.123483 1.304712 -0.809599
0.130505 1.306439 -0.811719
0.137089 1.302551 -0.811027
0.143248 1.294160 -0.808069
0.150409 1.297370 -0.810943
0.157477 1.299190 -0.813127
0.163860 1.294093 -0.811820
0.169446 1.282022 -0.806974
0.176073 1.280099 -0.807262
0.182743 1.278595 -0.807763
0.188504 1.269793 -0.804548
0.195473 1.270931 -0.806394
0.202332 1.271051 -0.807727
0.209389 1.272475 -0.809732
0.214985 1.263619 -0.806467
0.221032 1.258280 -0.804999
0.227078 1.253194 -0.803655
0.233537 1.250903 -0.803749
0.240337 1.250706 -0.804927
0.246350 1.245831 -0.803685
0.254223 1.251670 -0.808002
0.260736 1.249603 -0.808222
0.267027 1.246366 -0.807832
0.272416 1.238539 -0.805043
0.279067 1.237403 -0.805745
0.286107 1.238139 -0.807431
0.291295 1.229883 -0.804399
0.296474 1.221915 -0.801507
0.304355 1.226522 -0.805237
0.312210 1.230704 -0.808757
0.318693 1.228654 -0.808990
0.325538 1.228138 -0.810039
0.331445 1.223682 -0.808996
0.338815 1.225241 -0.811153
0.343362 1.215492 -0.807283
0.350245 1.215106 -0.808405
0.356128 1.210867 -0.807467
0.361627 1.205296 -0.805809
0.367789 1.202272 -0.805516
0.375113 1.203420 -0.807471
0.380161 1.196505 -0.805077
0.387899 1.198972 -0.807752
0.396398 1.203815 -0.811728
0.401304 1.196576 -0.809152
0.409582 1.200413 -0.812598
0.415795 1.197483 -0.812365
0.421865 1.194136 -0.811903
0.428643 1.192992 -0.812647
0.433742 1.186772 -0.810606
0.439119 1.181506 -0.809082
0.445374 1.178894 -0.809015
0.454439 1.184311 -0.813384
0.461697 1.184403 -0.814823
0.467015 1.179066 -0.813256
0.472409 1.174032 -0.811852
0.479056 1.172436 -0.812357
0.487874 1.176523 -0.816036
0.495140 1.176397 -0.817375
0.495305 1.158103 -0.808536
0.508703 1.173507 -0.818588
0.514721 1.170132 -0.818113
0.521097 1.167660 -0.818146
0.526381 1.162571 -0.816700
0.529313 1.151999 -0.812143
0.536636 1.151893 -0.813508
0.544429 1.152800 -0.815456
0.550573 1.149877 -0.815229
0.557532 1.148788 -0.816051
0.564501 1.147682 -0.816867
0.568598 1.140301 -0.814088
0.576067 1.140275 -0.815526
0.583329 1.139744 -0.816681
0.586965 1.131598 -0.813445
0.594861 1.132364 -0.815353
0.600672 1.128807 -0.814765
0.605104 1.122511 -0.812583
0.611170 1.119541 -0.812331
0.618115 1.118292 -0.813084
0.624054 1.115069 -0.812688
0.630291 1.112425 -0.812631
0.639202 1.114803 -0.815527
0.644588 1.110509 -0.814510
0.650251 1.106760 -0.813811
0.654303 1.100113 -0.811398
0.657888 1.092722 -0.808535
0.664218 1.090289 -0.808609
0.668424 1.084134 -0.806469
0.673893 1.080235 -0.805669
0.682058 1.080951 -0.807631
0.689183 1.079828 -0.808502
0.697481 1.080610 -0.810526
0.705056 1.080110 -0.811790
0.711245 1.077293 -0.811666
0.714396 1.069578 -0.808580
0.720499 1.066657 -0.808393
0.725925 1.062661 -0.807556
0.730353 1.057128 -0.805782
0.736377 1.054093 -0.805532
0.743873 1.053286 -0.806650
0.747739 1.046961 -0.804392
0.754296 1.044695 -0.804626
0.758929 1.039572 -0.803104
0.761094 1.030892 -0.799380
0.763482 1.022639 -0.795909
0.756466 1.001111 -0.784173
0.759675 0.994347 -0.781588
0.761055 0.985103 -0.777447
0.764932 0.979410 -0.775516
0.770106 0.975522 -0.774717
0.775611 0.972076 -0.774200
0.777400 0.963668 -0.770554
0.780733 0.957386 -0.768244
0.787634 0.955802 -0.768913
0.793204 0.952447 -0.768466
0.798653 0.948917 -0.767914
0.805092 0.946622 -0.768159
0.812104 0.944999 -0.768845
0.818195 0.942177 -0.768774
0.823415 0.938256 -0.768003
0.825154 0.930104 -0.764500
0.831965 0.928106 -0.764981
0.839589 0.927014 -0.766065
0.847625 0.926330 -0.767433
0.845529 0.913800 -0.761065
0.795320 0.846170 -0.718497
0.793328 0.834656 -0.712639
0.804849 0.838488 -0.716890
0.810362 0.835458 -0.716633
0.816221 0.832778 -0.716617
0.821043 0.828927 -0.715832
0.821196 0.820027 -0.711677
0.831226 0.821756 -0.714635
0.832650 0.814266 -0.711421
0.839099 0.812088 -0.711782
0.840861 0.805015 -0.708840
0.845545 0.800986 -0.707957
0.848710 0.795411 -0.706024
0.847459 0.785438 -0.701079
0.855805 0.785096 -0.702718
0.869197 0.789625 -0.707729
0.881440 0.792861 -0.711886
0.885668 0.788248 -0.710637
0.885462 0.779437 -0.706465
0.891249 0.776372 -0.706277
0.896125 0.772451 -0.705491
0.899271 0.766950 -0.703589
0.905429 0.764249 -0.703647
0.921435 0.770432 -0.709987
0.913303 0.754886 -0.700938
0.931746 0.763102 -0.708748
0.933711 0.756699 -0.706151
0.926279 0.742258 -0.697756
0.920613 0.729601 -0.690573
0.932329 0.731937 -0.694153
0.954541 0.743043 -0.704096
0.972138 0.750097 -0.711134
0.981958 0.750616 -0.713427
1.004498 0.761530 -0.723316
1.012931 0.760860 -0.724730
1.021479 0.760330 -0.726221
-0.351519 1.430971 -0.798419
-0.345161 1.432530 -0.800373
-0.340006 1.439450 -0.804752
-0.334023 1.443665 -0.807922
-0.328315 1.449626 -0.811893
-0.322383 1.455284 -0.815738
-0.316099 1.460028 -0.819178
-0.310418 1.468045 -0.824119
-0.304978 1.477875 -0.829901
-0.298635 1.484259 -0.834126
-0.292187 1.490749 -0.838410
-0.285541 1.496856 -0.842530
-0.279108 1.504597 -0.847412
-0.272148 1.510238 -0.851340
-0.264579 1.513128 -0.854008
-0.212481 1.352687 -0.783561
-0.204016 1.346045 -0.781671
-0.195980 1.341675 -0.780827
-0.187788 1.336030 -0.779380
-0.179133 1.326921 -0.776304
-0.170125 1.314704 -0.771757
-0.162790 1.313476 -0.772345
-0.155967 1.371194 -0.801855
-0.150373 1.386047 -0.810077
-0.142445 1.382496 -0.809627
-0.134114 1.374960 -0.807284
-0.125977 1.368374 -0.805379
-0.118609 1.368444 -0.806628
-0.111581 1.371856 -0.809469
-0.104123 1.370870 -0.810220
-0.096864 1.371882 -0.811925
-0.089506 1.371665 -0.813045
-0.081898 1.367984 -0.812506
-0.074415 1.365346 -0.812462
-0.066932 1.362110 -0.812129
-0.059590 1.360416 -0.812535
-0.052412 1.361127 -0.814103
-0.045064 1.358456 -0.814038
-0.037713 1.354890 -0.813536
-0.030438 1.352073 -0.813394
-0.023043 1.344837 -0.811100
-0.015980 1.345750 -0.812769
-0.008869 1.344896 -0.813579
-0.001710 1.340925 -0.812865
0.005480 1.331926 -0.809684
0.012545 1.325628 -0.807815
0.019534 1.321116 -0.806817
0.026473 1.319911 -0.807445
0.033374 1.314002 -0.805751
0.040255 1.312245 -0.806103
0.047139 1.311830 -0.807121
0.054032 1.312041 -0.808453
0.060887 1.310706 -0.809020
0.067575 1.304272 -0.807048
0.074249 1.299238 -0.805766
0.080900 1.294816 -0.804785
0.087721 1.294978 -0.806098
0.094367 1.291610 -0.805642
0.101025 1.288962 -0.805546
0.107634 1.285871 -0.805227
0.114559 1.287886 -0.807483
0.121200 1.285556 -0.807550
0.127381 1.277457 -0.804693
0.134602 1.282941 -0.808722
0.140297 1.270171 -0.803481
0.147546 1.275540 -0.807462
0.155332 1.285743 -0.813927
0.161250 1.276622 -0.810532
0.167430 1.270706 -0.808766
0.173780 1.266717 -0.807984
0.180026 1.262095 -0.806871
0.186553 1.260037 -0.807077
0.192955 1.257060 -0.806808
0.200386 1.261898 -0.810582
0.205975 1.253027 -0.807264
0.212839 1.253527 -0.808799
0.218368 1.244971 -0.805629
0.224239 1.239105 -0.803850
0.231144 1.239968 -0.805577
0.237768 1.238975 -0.806340
0.244323 1.237543 -0.806875
0.250909 1.236271 -0.807497
0.257725 1.236243 -0.808776
0.262793 1.226777 -0.805083
0.268824 1.222739 -0.804243
0.275402 1.221593 -0.804931
0.282567 1.223302 -0.807137
0.288743 1.220085 -0.806732
0.293247 1.209135 -0.802209
0.300711 1.212110 -0.805097
0.308175 1.214848 -0.807870
0.314693 1.213263 -0.808338
0.320821 1.210013 -0.807915
0.326886 1.206560 -0.807381
0.332981 1.203292 -0.806944
0.340130 1.204254 -0.808789
0.345825 1.199458 -0.807527
0.351768 1.195718 -0.806832
0.358270 1.194124 -0.807300
0.365168 1.193950 -0.808542
0.369889 1.185950 -0.805522
0.377726 1.189057 -0.808559
0.384503 1.188337 -0.809512
0.390476 1.184860 -0.808958
0.395084 1.176945 -0.805961
0.404958 1.186260 -0.812442
0.411881 1.185793 -0.813551
0.416695 1.178697 -0.810999
0.423131 1.176738 -0.811283
0.429508 1.174593 -0.811465
0.434332 1.167862 -0.809096
0.440726 1.165841 -0.809344
0.449479 1.170547 -0.813351
0.455555 1.167509 -0.813039
0.460597 1.161644 -0.811140
0.466952 1.159459 -0.811303
0.475229 1.162409 -0.814360
0.482781 1.163287 -0.816259
0.492057 1.168527 -0.820635
0.492246 1.150375 -0.811769
0.496882 1.143868 -0.809481
0.503397 1.142130 -0.809899
0.509607 1.139632 -0.809886
0.517328 1.140764 -0.811949
0.524855 1.141335 -0.813699
0.532743 1.142661 -0.815891
0.539671 1.141676 -0.816764
0.546914 1.141362 -0.818028
0.551664 1.135425 -0.816050
0.554991 1.126451 -0.812306
0.559766 1.120798 -0.810473
0.569288 1.125397 -0.814596
0.575697 1.123228 -0.814794
0.578579 1.113698 -0.810695
0.585011 1.111653 -0.810961
0.592932 1.112614 -0.812992
0.599035 1.109843 -0.812840
0.607347 1.111442 -0.815264
0.614343 1.110362 -0.816118
0.620343 1.107323 -0.815820
0.625397 1.102491 -0.814459
0.630613 1.098016 -0.813306
0.639873 1.101083 -0.816643
0.645985 1.098239 -0.816469
0.649147 1.090056 -0.813101
0.649808 1.077528 -0.807116
0.656600 1.076063 -0.807756
0.661921 1.071994 -0.806833
0.669269 1.071445 -0.808036
0.676837 1.071213 -0.809439
0.682911 1.068399 -0.809286
0.688476 1.064733 -0.808617
0.700714 1.072052 -0.814646
0.702082 1.061456 -0.809761
0.708241 1.058729 -0.809677
0.714249 1.055748 -0.809442
0.720694 1.053446 -0.809627
0.724036 1.046300 -0.806831
0.732342 1.046859 -0.808791
0.738191 1.043598 -0.808398
0.741912 1.037134 -0.806019
0.748021 1.034280 -0.805881
0.753489 1.030468 -0.805152
0.757587 1.024667 -0.803181
0.758412 1.014211 -0.798285
0.752879 0.994870 -0.787782
0.753359 0.984314 -0.782774
0.755495 0.976205 -0.779294
0.756443 0.966554 -0.774826
0.764108 0.966161 -0.776227
0.773016 0.967364 -0.778659
0.773558 0.957321 -0.773928
0.777833 0.952321 -0.772411
0.781998 0.947195 -0.770813
0.788430 0.945012 -0.771111
0.793982 0.941662 -0.770666
0.800486 0.939493 -0.770993
0.807877 0.938385 -0.772020
0.814141 0.935817 -0.772112
0.816368 0.928275 -0.768967
0.821612 0.924443 -0.768245
0.828677 0.922773 -0.768948
0.832497 0.917201 -0.767098
0.836162 0.911466 -0.765139
0.839113 0.904925 -0.762646
0.790894 0.839736 -0.721185
0.794228 0.834319 -0.719318
0.796239 0.827435 -0.716470
0.797194 0.819428 -0.712864
0.809370 0.805866 -0.709052
0.828655 0.808598 -0.714543
0.827075 0.798076 -0.709209
0.833098 0.795527 -0.709315
0.839800 0.776286 -0.701670
0.869928 0.771599 -0.706056
0.872962 0.766022 -0.704082
0.876341 0.760812 -0.702358
0.894965 0.769802 -0.710691
0.897268 0.763538 -0.708228
0.890065 0.748693 -0.699621
0.914903 0.754734 -0.707899
0.916493 0.748044 -0.705065
0.930197 0.752033 -0.709931
0.934593 0.747870 -0.708895
0.928944 0.735176 -0.701618
0.950446 0.745722 -0.711272
0.958506 0.744782 -0.712539
0.960899 0.739158 -0.710342
0.974402 0.742795 -0.714945
0.998379 0.747490 -0.722235
0.999703 0.741295 -0.719489
-0.348477 1.412113 -0.797801
-0.346022 1.428671 -0.806595
-0.341011 1.436039 -0.811223
-0.335986 1.444070 -0.816169
-0.330860 1.452427 -0.821280
-0.323473 1.451910 -0.822331
-0.317900 1.459645 -0.827179
-0.312183 1.467451 -0.832073
-0.306391 1.475618 -0.837147
-0.300380 1.483472 -0.842091
-0.294081 1.490633 -0.846727
-0.287409 1.496601 -0.850821
-0.280744 1.503161 -0.855201
-0.273563 1.507625 -0.858614
-0.266196 1.511546 -0.861782
-0.259694 1.520559 -0.867337
-0.248427 1.503527 -0.860700
-0.197881 1.343222 -0.789143
-0.188683 1.331350 -0.784729
-0.179972 1.321869 -0.781425
-0.171325 1.312127 -0.777982
-0.163904 1.310300 -0.778280
-0.156646 1.309501 -0.779064
-0.148150 1.299084 -0.775264
-0.141099 1.299259 -0.776503
-0.133997 1.298940 -0.777507
-0.132725 1.349302 -0.802790
-0.125860 1.353316 -0.805918
-0.118327 1.351205 -0.806109
-0.110660 1.347376 -0.805470
-0.103451 1.347863 -0.806910
-0.097138 1.358395 -0.813207
-0.089497 1.354136 -0.812361
-0.082116 1.352462 -0.812764
-0.074527 1.347527 -0.811582
-0.067067 1.343549 -0.810859
-0.060099 1.346604 -0.813562
-0.052901 1.346004 -0.814486
-0.045648 1.344036 -0.814742
-0.038284 1.339036 -0.813511
-0.030930 1.332826 -0.811679
-0.023802 1.330800 -0.811899
-0.016740 1.329945 -0.812695
-0.009672 1.328279 -0.813093
-0.002630 1.326754 -0.813560
0.004421 1.323305 -0.813074
0.011492 1.314471 -0.809911
0.018457 1.307530 -0.807677
0.025344 1.306217 -0.808239
0.032206 1.303066 -0.807885
0.039035 1.299859 -0.807501
0.045780 1.293200 -0.805385
0.052551 1.291345 -0.805673
0.059361 1.291767 -0.807106
0.066105 1.289773 -0.807327
0.072679 1.283472 -0.805374
0.079238 1.278312 -0.803989
0.086040 1.279607 -0.805871
0.092572 1.275202 -0.804866
0.099016 1.269921 -0.803411
0.105819 1.271358 -0.805373
0.111914 1.261715 -0.801686
0.118217 1.256297 -0.800147
0.124292 1.248513 -0.797389
0.131141 1.251141 -0.799966
0.137595 1.248775 -0.799983
0.144301 1.249315 -0.801499
0.150897 1.248567 -0.802355
0.157881 1.251587 -0.805163
0.164860 1.254153 -0.807746
0.171449 1.252917 -0.808365
0.177671 1.248557 -0.807362
0.183537 1.241573 -0.804987
0.189868 1.238678 -0.804738
0.195927 1.233875 -0.803491
0.203345 1.239118 -0.807504
0.208980 1.231499 -0.804778
0.215747 1.231898 -0.806260
0.221461 1.225352 -0.804088
0.227378 1.220406 -0.802752
0.235839 1.231081 -0.809676
0.239887 1.215113 -0.802502
0.247107 1.218047 -0.805342
0.254096 1.219435 -0.807369
0.259958 1.214606 -0.806089
0.265564 1.208621 -0.804187
0.269806 1.195959 -0.798703
0.279193 1.209238 -0.807112
0.283266 1.196223 -0.801422
0.289472 1.193760 -0.801393
0.297159 1.198079 -0.805022
0.304188 1.199167 -0.806919
0.310681 1.197790 -0.807489
0.316594 1.193925 -0.806711
0.320256 1.180820 -0.800905
0.328545 1.186958 -0.805561
0.334387 1.183051 -0.804751
0.341067 1.182472 -0.805759
0.347127 1.179479 -0.805447
0.354146 1.180093 -0.807116
0.357028 1.165549 -0.800449
0.365739 1.172281 -0.805488
0.371802 1.169418 -0.805246
0.379007 1.170498 -0.807186
0.384691 1.166344 -0.806230
0.392702 1.169939 -0.809578
0.397068 1.161533 -0.806255
0.401096 1.152288 -0.802450
0.408730 1.154536 -0.805058
0.415504 1.153998 -0.806115
0.423700 1.157677 -0.809545
0.430866 1.158112 -0.811163
0.435162 1.150120 -0.808037
0.442883 1.152105 -0.810535
0.452007 1.157887 -0.815194
0.456951 1.151865 -0.813175
0.462123 1.146585 -0.811570
0.469207 1.146512 -0.812925
0.474635 1.142016 -0.811761
0.481279 1.140737 -0.812433
0.488642 1.141257 -0.814140
0.492932 1.133981 -0.811376
0.498556 1.130152 -0.810585
0.505885 1.130520 -0.812212
0.513181 1.130726 -0.813754
0.522018 1.134502 -0.817371
0.530121 1.136389 -0.819908
0.536098 1.133271 -0.819544
0.535296 1.114833 -0.810247
0.544100 1.118278 -0.813698
0.549628 1.114351 -0.812848
0.556463 1.113300 -0.813684
0.563413 1.112457 -0.814646
0.567838 1.106238 -0.812445
0.573027 1.101708 -0.811235
0.577517 1.095796 -0.809202
0.581907 1.089768 -0.807094
0.592640 1.096529 -0.812580
0.599493 1.095380 -0.813380
0.604331 1.090261 -0.811816
0.613771 1.094069 -0.815588
0.619961 1.091530 -0.815573
0.622966 1.083009 -0.811965
0.628568 1.079444 -0.811328
0.637018 1.081114 -0.813852
0.639902 1.072608 -0.810232
0.645148 1.068456 -0.809240
0.651007 1.065420 -0.808925
0.658409 1.065074 -0.810250
0.660733 1.055919 -0.806205
0.671480 1.061249 -0.811013
0.676429 1.056626 -0.809739
0.679172 1.048373 -0.806231
0.686584 1.047910 -0.807513
0.693190 1.046078 -0.807958
0.698190 1.041632 -0.806792
0.703794 1.038174 -0.806239
0.709017 1.034120 -0.805317
0.718229 1.036272 -0.808267
0.721318 1.028905 -0.805284
0.730202 1.030417 -0.807858
0.736411 1.027803 -0.807857
0.740714 1.022342 -0.806070
0.746606 1.019250 -0.805776
0.754803 1.019490 -0.807596
0.746916 0.996569 -0.794732
0.743643 0.980614 -0.786242
0.746817 0.973972 -0.783657
0.745467 0.961110 -0.777089
0.722462 0.918712 -0.751553
0.731002 0.919989 -0.753972
0.769019 0.950049 -0.776652
0.773445 0.945295 -0.775273
0.778860 0.941843 -0.774742
0.782181 0.935679 -0.772450
0.788401 0.933249 -0.772595
0.795034 0.931300 -0.773066
0.802625 0.930494 -0.774300
0.807092 0.925760 -0.772963
0.811653 0.921147 -0.771709
0.818213 0.918948 -0.772058
0.821124 0.912341 -0.769491
0.826966 0.909241 -0.769257
0.831301 0.904345 -0.767834
0.835881 0.899738 -0.766607
0.791568 0.839142 -0.727741
0.794587 0.833349 -0.725609
0.799141 0.829304 -0.724658
0.780656 0.799691 -0.706366
0.769085 0.761146 -0.685312
0.770521 0.754282 -0.682338
0.769562 0.744952 -0.677655
0.772204 0.739479 -0.675619
0.784227 0.743698 -0.680304
0.794096 0.745548 -0.683379
0.793091 0.736303 -0.678736
0.804003 0.739062 -0.682481
0.810506 0.737326 -0.683099
0.815926 0.734487 -0.682950
0.817303 0.727719 -0.680024
0.845767 0.738723 -0.691618
0.859874 0.743829 -0.697197
0.881336 0.739203 -0.699752
0.928693 0.741180 -0.711135
0.935680 0.739348 -0.711775
0.932013 0.728535 -0.705748
0.943003 0.730201 -0.708932
0.943949 0.723514 -0.705883
1.073981 0.798981 -0.770420
-0.353634 1.424959 -0.811602
-0.347288 1.426401 -0.813537
-0.343069 1.436827 -0.819628
-0.337819 1.443898 -0.824184
-0.331768 1.448353 -0.827541
-0.325974 1.454492 -0.831688
-0.320062 1.460770 -0.835910
-0.313979 1.466937 -0.840091
-0.307693 1.472818 -0.844149
-0.301851 1.481352 -0.849458
-0.295197 1.486756 -0.853314
-0.288567 1.492817 -0.857487
-0.281841 1.498962 -0.861709
-0.275688 1.508590 -0.867583
-0.268615 1.514101 -0.871529
-0.259294 1.507937 -0.869956
-0.249054 1.496426 -0.865837
-0.243692 1.512313 -0.874713
-0.238584 1.530789 -0.884848
-0.175528 1.329797 -0.793919
-0.166074 1.314468 -0.787740
-0.158042 1.308292 -0.785939
-0.149878 1.300559 -0.783377
-0.141873 1.293360 -0.781061
-0.133644 1.283606 -0.777496
-0.125539 1.273942 -0.773960
-0.118434 1.272290 -0.774298
-0.112747 1.283830 -0.781050
-0.109574 1.321597 -0.800602
-0.103562 1.333461 -0.807578
-0.096832 1.338557 -0.811267
-0.089939 1.342188 -0.814251
-0.082094 1.334095 -0.811489
-0.074374 1.326385 -0.808903
-0.067045 1.323030 -0.808452
-0.060288 1.327946 -0.812077
-0.053515 1.333271 -0.815916
-0.046220 1.329602 -0.815314
-0.038845 1.323274 -0.813389
-0.031728 1.321231 -0.813586
-0.024624 1.318730 -0.813554
-0.017578 1.317009 -0.813909
-0.010498 1.313115 -0.813180
-0.003546 1.312917 -0.814296
0.003444 1.310030 -0.814067
0.010437 1.304007 -0.812262
0.017369 1.297266 -0.810088
0.024223 1.293956 -0.809635
0.031053 1.294095 -0.810923
0.037851 1.290590 -0.810370
0.044577 1.284499 -0.808504
0.051314 1.282291 -0.808603
0.057952 1.276899 -0.807081
0.064577 1.272881 -0.806255
0.070922 1.261839 -0.801839
0.077340 1.255454 -0.799788
0.083918 1.254053 -0.800284
0.090067 1.244214 -0.796450
0.097202 1.254093 -0.802742
0.103646 1.250683 -0.802211
0.109851 1.244027 -0.800002
0.115925 1.236400 -0.797283
0.122597 1.237630 -0.799142
0.128672 1.231205 -0.797035
0.135144 1.230064 -0.797668
0.141592 1.228696 -0.798185
0.148136 1.228360 -0.799244
0.154981 1.230922 -0.801822
0.161554 1.230584 -0.802890
0.168367 1.232311 -0.805046
0.174521 1.228158 -0.804118
0.180289 1.221095 -0.801653
0.186207 1.215682 -0.800050
0.191894 1.208865 -0.797698
0.198706 1.210598 -0.799870
0.204843 1.207407 -0.799435
0.212443 1.214171 -0.804294
0.219591 1.217434 -0.807306
0.224836 1.208438 -0.803783
0.230344 1.201520 -0.801358
0.237098 1.202264 -0.803032
0.242465 1.194960 -0.800390
0.250117 1.200630 -0.804721
0.257892 1.206532 -0.809193
0.261081 1.188075 -0.800522
0.266541 1.182063 -0.798554
0.274024 1.186277 -0.802125
0.280636 1.185980 -0.803259
0.286732 1.183194 -0.803042
0.293031 1.181383 -0.803357
0.299078 1.178446 -0.803057
0.304723 1.173812 -0.801827
0.310230 1.168724 -0.800343
0.316189 1.165655 -0.799963
0.322682 1.164807 -0.800806
0.329875 1.166685 -0.803157
0.336101 1.164647 -0.803352
0.342971 1.165056 -0.804903
0.347141 1.155328 -0.800831
0.354007 1.155733 -0.802382
0.363755 1.166320 -0.809617
0.366631 1.152384 -0.803179
0.372488 1.149129 -0.802696
0.378998 1.148113 -0.803466
0.385393 1.146681 -0.804006
0.390442 1.140870 -0.802082
0.395153 1.134122 -0.799621
0.401660 1.133143 -0.800413
0.409943 1.137562 -0.804268
0.419762 1.146373 -0.810632
0.421847 1.131940 -0.803797
0.431040 1.138580 -0.808949
0.437361 1.136717 -0.809265
0.444733 1.137797 -0.811267
0.444889 1.118842 -0.801784
0.457023 1.132969 -0.811280
0.463166 1.130561 -0.811291
0.469648 1.129048 -0.811818
0.477136 1.130116 -0.813843
0.480044 1.119409 -0.809049
0.485131 1.114427 -0.807562
0.494675 1.120545 -0.812531
0.502552 1.122350 -0.815005
0.510126 1.123308 -0.816996
0.517648 1.124046 -0.818867
0.520953 1.114872 -0.814928
0.524993 1.107581 -0.812080
0.526685 1.095115 -0.806171
0.535942 1.099809 -0.810376
0.545482 1.104930 -0.814853
0.551347 1.101869 -0.814497
0.552941 1.089686 -0.808714
0.559240 1.087695 -0.808983
0.567699 1.090188 -0.811932
0.570069 1.080040 -0.807329
0.577466 1.080283 -0.808941
0.585807 1.082342 -0.811655
0.592097 1.080231 -0.811869
0.599535 1.080343 -0.813428
0.605294 1.077154 -0.813000
0.609897 1.071782 -0.811247
0.615132 1.067660 -0.810249
0.622000 1.066600 -0.811115
0.626917 1.061928 -0.809782
0.632073 1.057732 -0.808737
0.638052 1.055041 -0.808613
0.646658 1.056977 -0.811338
0.647946 1.046045 -0.806148
0.652220 1.040445 -0.804231
0.661988 1.044255 -0.808134
0.670305 1.045464 -0.810447
0.675077 1.040684 -0.809048
0.679763 1.035800 -0.807582
0.686682 1.034582 -0.808405
0.692620 1.031743 -0.808222
0.697883 1.027825 -0.807364
0.704333 1.025782 -0.807688
0.708615 1.020349 -0.805880
0.715176 1.018454 -0.806307
0.723997 1.019950 -0.808891
0.730063 1.017208 -0.808801
0.733238 1.010163 -0.805974
0.736873 1.003868 -0.803619
0.737422 0.993161 -0.798433
0.738272 0.983039 -0.793604
0.741593 0.976559 -0.791101
0.741656 0.965572 -0.785684
0.723566 0.929574 -0.764065
0.714311 0.906389 -0.750653
0.720021 0.903926 -0.750656
0.724169 0.899340 -0.749282
0.733401 0.901519 -0.752333
0.734639 0.893072 -0.748442
0.742468 0.893283 -0.750230
0.774340 0.924307 -0.772349
0.783903 0.926217 -0.775354
0.791885 0.926008 -0.776980
0.794996 0.919647 -0.774538
0.802040 0.918172 -0.775349
0.806837 0.913896 -0.774303
0.807561 0.904706 -0.769968
0.816892 0.905881 -0.772587
0.822055 0.902015 -0.771835
0.826144 0.896880 -0.770231
0.790291 0.836300 -0.732802
0.795041 0.832469 -0.731992
0.799480 0.828276 -0.730939
0.750643 0.756626 -0.685278
