ply
format ascii 1.0
comment ---
element vertex 1682
property float x
property float y
property float z
element face 0
property list uchar uint vertex_indices
end_header
0.113246 2.038749 -0.586772
0.123703 2.043864 -0.588232
0.134305 2.049735 -0.589853
0.145027 2.056037 -0.591566
0.155975 2.063592 -0.593548
0.166791 2.069472 -0.595167
0.177281 2.072396 -0.596145
0.187190 2.070838 -0.596149
0.196787 2.067119 -0.595680
0.206259 2.062719 -0.595059
0.215872 2.059429 -0.594674
0.225655 2.057333 -0.594543
0.234939 2.052207 -0.593750
0.244184 2.047067 -0.592947
0.253002 2.039654 -0.591645
0.261978 2.033458 -0.590602
0.271198 2.028853 -0.589899
0.280361 2.024106 -0.589160
0.289081 2.017204 -0.587945
0.298034 2.011752 -0.587041
0.306466 2.003902 -0.585607
0.314716 1.995466 -0.584038
0.323385 1.989320 -0.582963
0.332180 1.983956 -0.582053
0.340712 1.977564 -0.580913
0.349302 1.971626 -0.579865
0.358311 1.967677 -0.579247
0.367075 1.962776 -0.578414
0.375242 1.955519 -0.577057
0.383429 1.948557 -0.575759
0.391647 1.941913 -0.574523
0.400025 1.936073 -0.573457
0.407690 1.927645 -0.571815
0.415367 1.919494 -0.570226
0.423481 1.913178 -0.569034
0.431777 1.907668 -0.568011
0.439700 1.900942 -0.566714
0.447462 1.893813 -0.565320
0.455411 1.887484 -0.564095
0.463310 1.881121 -0.562854
0.471413 1.875561 -0.561783
0.479514 1.870092 -0.560724
0.487754 1.865162 -0.559776
0.495500 1.858745 -0.558492
0.502383 1.849766 -0.556633
0.508997 1.840158 -0.554626
0.517429 1.836222 -0.553864
0.526220 1.833379 -0.553336
0.534406 1.828765 -0.552408
0.541323 1.820552 -0.550674
0.547867 1.811435 -0.548731
0.554612 1.803047 -0.546940
0.562668 1.798404 -0.545969
0.569929 1.791647 -0.544520
0.582724 1.799742 -0.546352
0.589284 1.791109 -0.544469
0.585654 1.756198 -0.536756
0.598499 1.764273 -0.538554
0.614630 1.780307 -0.542106
0.607813 1.738718 -0.532884
0.617247 1.738020 -0.532710
0.627470 1.739145 -0.532930
0.623095 1.705257 -0.525385
0.635054 1.710657 -0.526531
0.643224 1.706992 -0.525660
0.651200 1.702865 -0.524676
0.661120 1.703142 -0.524657
0.665341 1.690538 -0.521777
0.672168 1.683901 -0.520208
0.679536 1.678498 -0.518902
0.686178 1.671551 -0.517245
0.692795 1.664607 -0.515579
0.698857 1.656552 -0.513658
0.703770 1.646193 -0.511220
0.711739 1.642241 -0.510187
0.717250 1.633290 -0.508043
0.725728 1.630382 -0.507223
0.730293 1.619686 -0.504679
0.734840 1.609097 -0.502152
0.741188 1.602131 -0.500416
0.748187 1.596462 -0.498960
0.755289 1.591017 -0.497547
0.760098 1.581313 -0.495193
0.766283 1.574272 -0.493421
0.773593 1.569351 -0.492110
0.779534 1.561978 -0.490260
0.784503 1.552952 -0.488046
0.791066 1.546856 -0.486475
0.798846 1.542943 -0.485383
0.805439 1.536999 -0.483849
0.810739 1.528913 -0.481851
0.817550 1.523499 -0.480442
0.823554 1.516807 -0.478761
0.830960 1.512532 -0.477618
0.837979 1.507686 -0.476360
0.842691 1.499189 -0.474318
0.857168 1.506486 -0.475732
0.862227 1.498712 -0.473880
0.863262 1.484799 -0.470710
0.868033 1.476984 -0.468890
0.876183 1.474549 -0.468262
0.888287 1.478222 -0.468985
0.899313 1.480254 -0.469378
0.911139 1.483506 -0.470065
0.914866 1.474797 -0.468182
0.918620 1.466375 -0.466392
0.921090 1.456339 -0.464285
0.913407 1.431980 -0.459096
0.920380 1.429062 -0.458604
0.930031 1.430102 -0.459009
0.942291 1.434908 -0.460272
0.940770 1.420607 -0.457409
0.960683 1.436234 -0.461110
-0.622791 1.154663 -0.358855
-0.624178 1.170196 -0.361854
-0.619287 1.171584 -0.362287
-0.614305 1.172975 -0.362753
-0.610370 1.177076 -0.363752
-0.608454 1.186325 -0.365736
-0.604699 1.191469 -0.366997
-0.600185 1.195029 -0.367998
-0.595809 1.199180 -0.369141
-0.590867 1.202152 -0.370096
-0.587258 1.208765 -0.371758
-0.582955 1.213881 -0.373172
-0.578946 1.220028 -0.374807
-0.574020 1.224009 -0.376064
-0.568772 1.227326 -0.377220
-0.564751 1.234196 -0.379068
-0.560906 1.241834 -0.381083
-0.556823 1.249089 -0.383049
-0.551389 1.252733 -0.384351
-0.545450 1.255059 -0.385417
-0.540109 1.259254 -0.386851
-0.534080 1.261535 -0.387932
-0.531491 1.274403 -0.391051
-0.525334 1.276608 -0.392139
-0.519868 1.281055 -0.393664
-0.516213 1.291439 -0.396342
-0.511069 1.297289 -0.398154
-0.506498 1.305202 -0.400372
-0.501004 1.310230 -0.402034
-0.495017 1.313687 -0.403392
-0.491196 1.324795 -0.406247
-0.485877 1.330905 -0.408128
-0.480577 1.337238 -0.410053
-0.475228 1.343559 -0.411977
-0.469499 1.348603 -0.413647
-0.463660 1.353338 -0.415254
-0.457888 1.358442 -0.416931
-0.453324 1.368502 -0.419592
-0.448032 1.375906 -0.421724
-0.442678 1.383266 -0.423845
-0.437670 1.392324 -0.426305
-0.431591 1.397009 -0.427884
-0.425457 1.401552 -0.429430
-0.419244 1.405846 -0.430920
-0.413279 1.411388 -0.432657
-0.407120 1.416163 -0.434233
-0.400620 1.419399 -0.435491
-0.394563 1.424914 -0.437206
-0.389139 1.433857 -0.439615
-0.383156 1.440214 -0.441494
-0.377666 1.449468 -0.443961
-0.372256 1.459573 -0.446600
-0.366676 1.469162 -0.449131
-0.361251 1.480109 -0.451940
-0.357129 1.499484 -0.456485
-0.350352 1.503375 -0.457837
-0.343533 1.507145 -0.459158
-0.336859 1.512014 -0.460700
-0.330461 1.518994 -0.462675
-0.323929 1.525412 -0.464529
-0.317867 1.535619 -0.467169
-0.311210 1.541965 -0.469001
-0.305196 1.553764 -0.471968
-0.298913 1.564191 -0.474648
-0.292404 1.573449 -0.477081
-0.286280 1.586821 -0.480375
-0.279508 1.595280 -0.482638
-0.272479 1.601933 -0.484518
-0.265418 1.608836 -0.486447
-0.258772 1.620777 -0.489436
-0.251835 1.630640 -0.491985
-0.244809 1.640484 -0.494530
-0.237953 1.653561 -0.497757
-0.230439 1.659421 -0.499455
-0.222762 1.663687 -0.500811
-0.214670 1.662139 -0.500926
-0.206550 1.659837 -0.500874
-0.198754 1.662902 -0.501958
-0.194409 1.733837 -0.517522
-0.186616 1.744972 -0.520339
-0.177901 1.736517 -0.518966
-0.169989 1.747504 -0.521746
-0.162249 1.767002 -0.526351
-0.153961 1.773325 -0.528132
-0.145971 1.795228 -0.533258
-0.137576 1.806286 -0.536056
-0.129069 1.816768 -0.538731
-0.120509 1.832772 -0.542596
-0.111757 1.838987 -0.544351
-0.102944 1.844804 -0.546018
-0.094093 1.846790 -0.546855
-0.085068 1.864078 -0.550999
-0.076041 1.870125 -0.552712
-0.066964 1.875602 -0.554299
-0.057613 1.890140 -0.557851
-0.048228 1.900919 -0.560589
-0.038872 1.907673 -0.562451
-0.029402 1.915578 -0.564563
-0.019657 1.928023 -0.567663
-0.009825 1.939664 -0.570589
-0.000051 1.948007 -0.572796
0.009768 1.955624 -0.574844
0.019781 1.965092 -0.577296
0.029612 1.970370 -0.578831
0.039649 1.977718 -0.580819
0.049992 1.988071 -0.583464
0.060045 1.993517 -0.585032
0.070370 2.001430 -0.587142
0.081103 2.012914 -0.590035
0.091510 2.019732 -0.591903
0.102441 2.031043 -0.594759
0.113051 2.038172 -0.596694
0.123633 2.044317 -0.598412
0.134407 2.051541 -0.600366
0.145238 2.058573 -0.602277
0.155975 2.064204 -0.603878
0.166606 2.068511 -0.605184
0.176989 2.070564 -0.605990
0.187108 2.070477 -0.606318
0.196581 2.065799 -0.605626
0.206070 2.061452 -0.605003
0.215744 2.058508 -0.604685
0.225435 2.055762 -0.604408
0.234887 2.051630 -0.603817
0.243780 2.044316 -0.602514
0.253068 2.039625 -0.601788
0.261801 2.031978 -0.600400
0.270954 2.026968 -0.599592
0.280036 2.021756 -0.598734
0.288953 2.015874 -0.597722
0.297725 2.009464 -0.596585
0.306454 2.003074 -0.595447
0.314824 1.995171 -0.593965
0.323328 1.988188 -0.592682
0.331959 1.982031 -0.591578
0.340681 1.976481 -0.590603
0.349224 1.970302 -0.589481
0.358408 1.967081 -0.589017
0.367203 1.962269 -0.588190
0.375153 1.954071 -0.586596
0.383340 1.947090 -0.585269
0.391733 1.941124 -0.584163
0.399771 1.933922 -0.582772
0.407846 1.927061 -0.581451
0.415509 1.918829 -0.579815
0.424027 1.913969 -0.578930
0.432359 1.908533 -0.577908
0.440022 1.900831 -0.576369
0.447558 1.892875 -0.574765
0.455012 1.884828 -0.573132
0.463612 1.880836 -0.572407
0.471956 1.876047 -0.571494
0.480028 1.870441 -0.570389
0.487985 1.864566 -0.569216
0.495260 1.856645 -0.567572
0.502026 1.847306 -0.565600
0.509377 1.839961 -0.564069
0.517039 1.833686 -0.562772
0.525400 1.829579 -0.561957
0.533058 1.823458 -0.560678
0.540559 1.816978 -0.559309
0.548446 1.811683 -0.558199
0.555682 1.804639 -0.556684
0.563134 1.798292 -0.555319
0.572734 1.797838 -0.555279
0.580904 1.793486 -0.554347
0.585273 1.779166 -0.551146
0.587611 1.759886 -0.546812
0.598186 1.762077 -0.547334
0.609957 1.767122 -0.548494
0.608883 1.739994 -0.542352
0.621913 1.748076 -0.544181
0.629028 1.741524 -0.542682
0.631102 1.723001 -0.538461
0.634796 1.708673 -0.535181
0.644368 1.708276 -0.535049
0.653156 1.705978 -0.534475
0.661491 1.702601 -0.533647
0.669317 1.698061 -0.532546
0.673648 1.685801 -0.529686
0.680332 1.678866 -0.528023
0.687173 1.672327 -0.526439
0.693998 1.665802 -0.524850
0.700663 1.658985 -0.523185
0.706312 1.650112 -0.521046
0.710431 1.638199 -0.518212
0.719503 1.636496 -0.517677
0.726643 1.630851 -0.516242
0.729065 1.615897 -0.512698
0.736349 1.610687 -0.511346
0.744638 1.607432 -0.510429
0.748238 1.595193 -0.507479
0.753940 1.587098 -0.505458
0.760800 1.581247 -0.503937
0.767846 1.575770 -0.502497
0.775583 1.571583 -0.501342
0.780648 1.562581 -0.499102
0.784770 1.552013 -0.496510
0.792503 1.547958 -0.495380
0.798866 1.541529 -0.493717
0.805128 1.534994 -0.492033
0.811541 1.528793 -0.490428
0.818889 1.524245 -0.489197
0.827012 1.521036 -0.488272
0.834080 1.516113 -0.486971
0.837912 1.505976 -0.484514
0.843721 1.499222 -0.482826
0.854859 1.501112 -0.483081
0.861408 1.495697 -0.481721
0.861384 1.480106 -0.478107
0.867052 1.473669 -0.476556
0.876205 1.472739 -0.476255
0.883384 1.468866 -0.475320
0.902649 1.483310 -0.478494
0.905352 1.472849 -0.476143
0.902795 1.454891 -0.472149
0.914711 1.458525 -0.472999
0.924399 1.458954 -0.473166
0.915288 1.432472 -0.467365
0.920041 1.426311 -0.466128
0.928673 1.425850 -0.466198
0.936299 1.424114 -0.466019
0.944121 1.422810 -0.465973
0.939509 1.404549 -0.462169
-0.629126 1.166074 -0.366712
-0.625797 1.170898 -0.367782
-0.624312 1.180307 -0.369752
-0.614741 1.171067 -0.368231
-0.610037 1.173391 -0.368927
-0.608900 1.184539 -0.371329
-0.604964 1.189297 -0.372555
-0.600455 1.192920 -0.373597
-0.595911 1.196703 -0.374701
-0.592738 1.204199 -0.376544
-0.586953 1.205336 -0.377203
-0.583421 1.212479 -0.379039
-0.579522 1.218968 -0.380777
-0.574630 1.223094 -0.382089
-0.569661 1.227227 -0.383425
-0.565353 1.233371 -0.385172
-0.560891 1.239336 -0.386906
-0.556500 1.245742 -0.388745
-0.551001 1.249211 -0.390032
-0.545964 1.254169 -0.391624
-0.540247 1.257294 -0.392871
-0.534883 1.261593 -0.394358
-0.531038 1.270663 -0.396794
-0.527801 1.281910 -0.399672
-0.521581 1.284109 -0.400776
-0.517591 1.293505 -0.403310
-0.512072 1.298200 -0.404919
-0.507471 1.306062 -0.407163
-0.501544 1.309675 -0.408565
-0.496363 1.315923 -0.410494
-0.490728 1.320746 -0.412140
-0.486153 1.329456 -0.414567
-0.481449 1.337949 -0.416954
-0.475937 1.343698 -0.418788
-0.470306 1.349141 -0.420559
-0.464524 1.354128 -0.422235
-0.458986 1.360185 -0.424126
-0.453975 1.368500 -0.426476
-0.448645 1.375765 -0.428610
-0.442810 1.381131 -0.430352
-0.437359 1.388266 -0.432454
-0.432568 1.398488 -0.435189
-0.426275 1.402376 -0.436617
-0.420209 1.407372 -0.438268
-0.414183 1.412686 -0.439979
-0.407810 1.416489 -0.441372
-0.401074 1.418605 -0.442408
-0.394582 1.421939 -0.443689
-0.389193 1.430999 -0.446160
-0.386231 1.453189 -0.451375
-0.381999 1.469593 -0.455385
-0.377202 1.483653 -0.458907
-0.371753 1.494667 -0.461789
-0.364378 1.494922 -0.462403
-0.356050 1.489337 -0.461776
-0.348814 1.490103 -0.462478
-0.343168 1.501006 -0.465319
-0.337501 1.512368 -0.468255
-0.330845 1.517623 -0.469894
-0.324780 1.527319 -0.472473
-0.318124 1.533280 -0.474254
-0.312282 1.545749 -0.477419
-0.305930 1.555053 -0.479908
-0.299274 1.562510 -0.482000
-0.293290 1.576193 -0.485424
-0.286597 1.584665 -0.487729
-0.279836 1.593181 -0.490041
-0.272740 1.599151 -0.491803
-0.265857 1.607765 -0.494132
-0.259140 1.618951 -0.497013
-0.252185 1.628569 -0.499555
-0.245617 1.643784 -0.503307
-0.238419 1.652822 -0.505723
-0.231021 1.660269 -0.507791
-0.223154 1.662003 -0.508617
-0.215061 1.660472 -0.508727
-0.207053 1.660034 -0.509068
-0.199411 1.665998 -0.510799
-0.195691 1.749148 -0.529371
-0.187328 1.749788 -0.529952
-0.178930 1.749702 -0.530370
-0.170444 1.747207 -0.530255
-0.162577 1.762923 -0.534125
-0.154222 1.766479 -0.535329
-0.146553 1.801031 -0.543338
-0.137966 1.803630 -0.544333
-0.129497 1.816663 -0.547620
-0.120870 1.825940 -0.550081
-0.112140 1.832231 -0.551883
-0.103347 1.838958 -0.553779
-0.094457 1.852051 -0.557081
-0.085509 1.857984 -0.558800
-0.076460 1.866841 -0.561165
-0.067361 1.873689 -0.563084
-0.058127 1.883284 -0.565612
-0.048586 1.900264 -0.569780
-0.039118 1.910105 -0.572364
-0.029419 1.923415 -0.575720
-0.019894 1.929577 -0.577486
-0.010181 1.938361 -0.579835
-0.000305 1.948515 -0.582490
0.009688 1.958925 -0.585203
0.019497 1.964635 -0.586865
0.029375 1.970459 -0.588552
0.039382 1.977206 -0.590445
0.049598 1.985738 -0.592736
0.059894 1.994158 -0.595003
0.070302 2.002853 -0.597331
0.080783 2.011333 -0.599611
0.091483 2.021158 -0.602193
0.102026 2.028386 -0.604191
0.112773 2.036794 -0.606454
0.123603 2.045139 -0.608702
0.134420 2.052582 -0.610748
0.145149 2.058583 -0.612467
0.155873 2.063999 -0.614053
0.166340 2.066926 -0.615075
0.176719 2.068890 -0.615876
0.187128 2.070844 -0.616673
0.197044 2.069146 -0.616640
0.205827 2.059819 -0.614874
0.215342 2.055780 -0.614301
0.224961 2.052575 -0.613913
0.234446 2.048643 -0.613355
0.244372 2.047498 -0.613425
0.252326 2.034892 -0.610885
0.261922 2.032166 -0.610586
0.270773 2.025410 -0.609365
0.279880 2.020294 -0.608511
0.289036 2.015621 -0.607754
0.297966 2.009948 -0.606763
0.306841 2.004203 -0.605749
0.315267 1.996475 -0.604277
0.323411 1.987698 -0.602559
0.332066 1.981600 -0.601447
0.340548 1.974916 -0.600195
0.349330 1.969770 -0.599289
0.358246 1.965345 -0.598542
0.366348 1.957583 -0.597024
0.374654 1.950904 -0.595748
0.383369 1.946080 -0.594891
0.391764 1.940090 -0.593760
0.399910 1.933287 -0.592436
0.407460 1.924381 -0.590621
0.415885 1.919017 -0.589614
0.424476 1.914379 -0.588767
0.432778 1.908785 -0.587693
0.440042 1.899620 -0.585790
0.447773 1.892326 -0.584310
0.455552 1.885371 -0.582901
0.464108 1.881181 -0.582122
0.472557 1.876698 -0.581268
0.479976 1.868922 -0.579646
0.486727 1.859179 -0.577562
0.494331 1.852347 -0.576143
0.502170 1.846376 -0.574914
0.509661 1.839440 -0.573454
0.517268 1.832981 -0.572096
0.524464 1.825415 -0.570474
0.532622 1.820783 -0.569522
0.540837 1.816364 -0.568611
0.548393 1.810120 -0.567268
0.556712 1.806085 -0.566429
0.564610 1.800917 -0.565319
0.571564 1.793250 -0.563620
0.579520 1.788369 -0.562559
0.585759 1.779019 -0.560452
0.590976 1.767179 -0.557758
0.599040 1.762836 -0.556793
0.608170 1.761190 -0.556444
0.619636 1.765285 -0.557416
0.624153 1.752138 -0.554382
0.626029 1.732851 -0.549913
0.626020 1.709468 -0.544486
0.640017 1.719559 -0.546810
0.644765 1.707791 -0.544056
0.653423 1.705182 -0.543416
0.661738 1.701751 -0.542575
0.667686 1.693006 -0.540493
0.674028 1.685237 -0.538628
0.681805 1.680676 -0.537496
0.688901 1.674648 -0.536015
0.694915 1.666353 -0.534000
0.698986 1.654069 -0.531052
0.706504 1.649116 -0.529792
0.710198 1.636335 -0.526712
0.717669 1.631393 -0.525437
0.726339 1.628852 -0.524710
0.729717 1.615801 -0.521544
0.737323 1.611201 -0.520324
0.744705 1.606167 -0.518997
0.750065 1.597286 -0.516775
0.756850 1.591189 -0.515189
0.761131 1.580460 -0.512530
0.768228 1.575063 -0.511096
0.775929 1.570792 -0.509918
0.782314 1.564151 -0.508190
0.787669 1.555737 -0.506052
0.794816 1.550577 -0.504663
0.798658 1.539698 -0.501958
0.805307 1.533816 -0.500404
0.812955 1.529696 -0.499257
0.820886 1.526079 -0.498229
0.828251 1.521545 -0.496996
0.833817 1.514094 -0.495101
0.839002 1.506144 -0.493101
0.843726 1.497587 -0.490973
0.858132 1.504653 -0.492435
0.856689 1.486516 -0.488142
0.863686 1.481955 -0.486973
0.870699 1.477525 -0.485852
0.876993 1.472105 -0.484524
0.882933 1.466290 -0.483129
0.894766 1.469494 -0.483818
0.895874 1.456728 -0.480884
0.899087 1.447377 -0.478757
0.907973 1.446569 -0.478612
0.917754 1.447160 -0.478817
0.914914 1.429737 -0.474935
0.919050 1.422648 -0.473448
0.931086 1.426934 -0.474597
0.940259 1.427269 -0.474877
0.943597 1.419644 -0.473370
0.958401 1.428040 -0.475570
-0.629480 1.163832 -0.372065
-0.627135 1.170961 -0.373619
-0.623606 1.175682 -0.374741
-0.616944 1.173329 -0.374524
-0.611709 1.174498 -0.375022
-0.607575 1.178512 -0.376104
-0.604935 1.186425 -0.377978
-0.600865 1.191171 -0.379268
-0.597047 1.196818 -0.380766
-0.591456 1.198280 -0.381475
-0.588829 1.207493 -0.383730
-0.582687 1.207973 -0.384301
-0.578135 1.212754 -0.385741
-0.575348 1.222468 -0.388180
-0.570387 1.226679 -0.389558
-0.565694 1.231824 -0.391142
-0.561273 1.237943 -0.392939
-0.556917 1.244480 -0.394839
-0.551751 1.248943 -0.396343
-0.546739 1.254021 -0.397985
-0.541388 1.258279 -0.399475
-0.536181 1.263114 -0.401092
-0.532050 1.271377 -0.403410
-0.527631 1.279006 -0.405612
-0.522600 1.284946 -0.407481
-0.517024 1.289309 -0.409037
-0.512705 1.297876 -0.411453
-0.507920 1.305150 -0.413613
-0.503029 1.312273 -0.415746
-0.497620 1.317812 -0.417558
-0.492107 1.323124 -0.419324
-0.486772 1.329192 -0.421246
-0.481207 1.334579 -0.423028
-0.476709 1.344031 -0.425651
-0.471015 1.349264 -0.427399
-0.465577 1.355595 -0.429374
-0.459411 1.359240 -0.430787
-0.455212 1.370795 -0.433849
-0.449411 1.376201 -0.435624
-0.443118 1.379691 -0.436994
-0.437266 1.385103 -0.438762
-0.431962 1.393034 -0.441057
-0.426652 1.401185 -0.443396
-0.420462 1.405612 -0.444944
-0.415022 1.413625 -0.447248
-0.408660 1.417524 -0.448675
-0.401790 1.419036 -0.449587
-0.395296 1.422392 -0.450885
-0.389290 1.428315 -0.452725
-0.388038 1.459398 -0.459946
-0.382723 1.470126 -0.462816
-0.376086 1.474017 -0.464217
-0.371037 1.487053 -0.467579
-0.361626 1.475215 -0.465581
-0.354532 1.476535 -0.466406
-0.348135 1.482156 -0.468153
-0.341899 1.489058 -0.470173
-0.340534 1.528431 -0.479234
-0.331623 1.518888 -0.477685
-0.325269 1.526606 -0.479877
-0.318756 1.533623 -0.481913
-0.312789 1.545175 -0.484936
-0.306438 1.554494 -0.487471
-0.299703 1.561328 -0.489459
-0.293457 1.572769 -0.492454
-0.287090 1.584016 -0.495406
-0.280163 1.591014 -0.497424
-0.273159 1.597824 -0.499397
-0.266119 1.604848 -0.501414
-0.259610 1.618136 -0.504811
-0.253058 1.632270 -0.508396
-0.245543 1.636574 -0.509807
-0.238696 1.649645 -0.513156
-0.231882 1.664725 -0.516952
-0.224297 1.670858 -0.518762
-0.215581 1.660664 -0.516941
-0.207669 1.661971 -0.517669
-0.199791 1.664040 -0.518561
-0.195843 1.742365 -0.536457
-0.187170 1.735936 -0.535462
-0.179307 1.747193 -0.538411
-0.171485 1.762303 -0.542224
-0.163558 1.778563 -0.546296
-0.155370 1.791013 -0.549516
-0.146920 1.797348 -0.551364
-0.138448 1.805713 -0.553667
-0.129922 1.815917 -0.556383
-0.121263 1.822483 -0.558279
-0.112537 1.828428 -0.560034
-0.103752 1.843991 -0.563958
-0.094871 1.848278 -0.565337
-0.085879 1.859515 -0.568285
-0.076809 1.868566 -0.570740
-0.067678 1.876087 -0.572848
-0.058199 1.895069 -0.577553
-0.048960 1.899168 -0.578886
-0.039384 1.912076 -0.582217
-0.029797 1.921895 -0.584847
-0.020237 1.928767 -0.586808
-0.010239 1.943353 -0.590524
-0.000349 1.953104 -0.593141
0.009190 1.954935 -0.593952
0.019071 1.961918 -0.595937
0.029074 1.969615 -0.598083
0.039056 1.975871 -0.599901
0.049369 1.985604 -0.602513
0.059532 1.992218 -0.604411
0.069820 1.999446 -0.606450
0.080717 2.012564 -0.609840
0.091304 2.020992 -0.612154
0.101990 2.029518 -0.614491
0.112549 2.035950 -0.616347
0.123068 2.041358 -0.617966
0.134135 2.051012 -0.620562
0.144596 2.054711 -0.621786
0.155290 2.059905 -0.623353
0.165870 2.063745 -0.624605
0.176692 2.069022 -0.626189
0.187142 2.071162 -0.627045
0.196689 2.066770 -0.626388
0.205765 2.059394 -0.625034
0.214967 2.053228 -0.623955
0.224430 2.049009 -0.623323
0.234277 2.047321 -0.623274
0.243876 2.044172 -0.622881
0.253348 2.040383 -0.622335
0.261500 2.029275 -0.620082
0.270878 2.025407 -0.619508
0.280050 2.020567 -0.618702
0.289045 2.014967 -0.617714
0.298218 2.010475 -0.616978
0.306956 2.003966 -0.615767
0.315709 1.997760 -0.614621
0.323883 1.989031 -0.612880
0.332430 1.982341 -0.611609
0.341186 1.976814 -0.610604
0.349734 1.970535 -0.609417
0.358071 1.963535 -0.608055
0.366101 1.955451 -0.606432
0.374591 1.949525 -0.605310
0.383367 1.944924 -0.604491
0.392060 1.940091 -0.603612
0.400185 1.933155 -0.602233
0.408020 1.925300 -0.600632
0.415862 1.917683 -0.599079
0.423993 1.911331 -0.597817
0.432306 1.905790 -0.596738
0.440682 1.900587 -0.595733
0.447506 1.890078 -0.593471
0.455929 1.885326 -0.592557
0.464349 1.880642 -0.591652
0.472560 1.875344 -0.590596
0.479342 1.865483 -0.588455
0.486153 1.855958 -0.586386
0.494107 1.850249 -0.585209
0.502541 1.846121 -0.584398
0.510036 1.839173 -0.582913
0.516768 1.830064 -0.580909
0.524988 1.825537 -0.579980
0.533333 1.821421 -0.579141
0.541150 1.815825 -0.577942
0.548674 1.809470 -0.576556
0.556580 1.804273 -0.575436
0.564343 1.798736 -0.574226
0.571345 1.791205 -0.572535
0.578401 1.783937 -0.570898
0.585671 1.777333 -0.569409
0.591750 1.767731 -0.567200
0.599599 1.762808 -0.566090
0.608240 1.759910 -0.565452
0.612262 1.745521 -0.562080
0.618591 1.737065 -0.560105
0.624923 1.728731 -0.558150
0.627672 1.711972 -0.554187
0.637168 1.711414 -0.554057
0.645669 1.708452 -0.553346
0.653403 1.703698 -0.552201
0.661842 1.700548 -0.551427
0.668226 1.692777 -0.549548
0.672906 1.681331 -0.546788
0.682865 1.681551 -0.546783
0.689863 1.675286 -0.545233
0.694390 1.663811 -0.542438
0.701143 1.657172 -0.540780
0.707887 1.650561 -0.539120
0.712003 1.638614 -0.536188
0.719168 1.633008 -0.534749
0.727293 1.629339 -0.533759
0.731837 1.618570 -0.531082
0.737718 1.610554 -0.529049
0.745567 1.606408 -0.527923
0.750908 1.597469 -0.525658
0.757241 1.590497 -0.523852
0.764137 1.584628 -0.522300
0.768221 1.573615 -0.519530
0.774907 1.567486 -0.517908
0.782122 1.562351 -0.516518
0.789356 1.557274 -0.515138
0.792797 1.545549 -0.512191
0.799731 1.540076 -0.510716
0.805147 1.532036 -0.508638
0.814062 1.530053 -0.507987
0.821134 1.524948 -0.506604
0.827016 1.517916 -0.504774
0.834137 1.513023 -0.503452
0.838512 1.503721 -0.501104
0.845982 1.499573 -0.499975
0.863775 1.511956 -0.502734
0.853824 1.480274 -0.495174
0.864193 1.480988 -0.495224
0.872022 1.477769 -0.494370
0.878641 1.472784 -0.493121
0.885430 1.468186 -0.491983
0.902055 1.478489 -0.494357
0.889015 1.444543 -0.486396
0.898868 1.445022 -0.486520
0.907371 1.443600 -0.486227
0.913667 1.439100 -0.485243
0.919469 1.434071 -0.484165
0.920644 1.422672 -0.481626
0.936002 1.431542 -0.483870
0.939893 1.424388 -0.482392
0.948573 1.424108 -0.482560
0.948176 1.411516 -0.479871
-0.633919 1.170880 -0.379265
-0.628143 1.170277 -0.379334
-0.623782 1.173131 -0.380123
-0.618160 1.173276 -0.380404
-0.613019 1.174744 -0.380980
-0.609745 1.180900 -0.382521
-0.605475 1.184950 -0.383675
-0.602175 1.191642 -0.385388
-0.597606 1.195499 -0.386565
-0.594192 1.202506 -0.388403
-0.588442 1.203869 -0.389136
-0.583021 1.206243 -0.390097
-0.579196 1.212974 -0.391961
-0.575017 1.219049 -0.393718
-0.570858 1.225438 -0.395562
-0.565829 1.229710 -0.396997
-0.561968 1.237406 -0.399149
-0.557491 1.243650 -0.401024
-0.552651 1.249088 -0.402751
-0.547564 1.254001 -0.404384
-0.543315 1.261554 -0.406573
-0.538690 1.268226 -0.408594
-0.533178 1.272413 -0.410113
-0.526882 1.274300 -0.411162
-0.522508 1.282261 -0.413476
-0.518530 1.291721 -0.416110
-0.513367 1.297614 -0.418009
-0.508869 1.305860 -0.420403
-0.503793 1.312398 -0.422445
-0.498251 1.317514 -0.424191
-0.493030 1.323866 -0.426198
-0.487110 1.327897 -0.427716
-0.481366 1.332636 -0.429381
-0.476936 1.342315 -0.432092
-0.471817 1.349694 -0.434316
-0.465701 1.353459 -0.435771
-0.460131 1.359411 -0.437687
-0.455834 1.370583 -0.440718
-0.449828 1.375170 -0.442339
-0.443900 1.380177 -0.444045
-0.437967 1.385272 -0.445766
-0.432152 1.391005 -0.447620
-0.426521 1.397704 -0.449679
-0.421176 1.405899 -0.452058
-0.415658 1.413568 -0.454321
-0.409261 1.417323 -0.455730
-0.402463 1.419205 -0.456725
-0.396070 1.423092 -0.458150
-0.389760 1.427497 -0.459682
-0.387234 1.451850 -0.465576
-0.381477 1.460013 -0.467929
-0.374839 1.463650 -0.469284
-0.369167 1.472868 -0.471862
-0.361793 1.472582 -0.472342
-0.354768 1.474273 -0.473250
-0.348117 1.478283 -0.474664
-0.349699 1.534934 -0.487731
-0.343922 1.546681 -0.490867
-0.333085 1.524723 -0.486516
-0.325946 1.527159 -0.487569
-0.319346 1.533590 -0.489506
-0.313010 1.542385 -0.491967
-0.306287 1.548721 -0.493876
-0.300268 1.561186 -0.497153
-0.294318 1.575145 -0.500766
-0.287470 1.582295 -0.502851
-0.280647 1.590222 -0.505109
-0.273617 1.596810 -0.507063
-0.267298 1.611095 -0.510748
-0.260316 1.619742 -0.513163
-0.253733 1.633657 -0.516765
-0.246118 1.636951 -0.517968
-0.238359 1.638770 -0.518833
-0.232749 1.669139 -0.526162
-0.225035 1.673846 -0.527680
-0.216922 1.673157 -0.527968
-0.208153 1.661630 -0.525787
-0.200732 1.671899 -0.528555
-0.195204 1.720333 -0.540021
-0.187665 1.735913 -0.544010
-0.179740 1.745874 -0.546719
-0.172535 1.777296 -0.554334
-0.163853 1.773143 -0.553817
-0.155702 1.786262 -0.557250
-0.147387 1.797718 -0.560303
-0.138819 1.801593 -0.561617
-0.130306 1.812045 -0.564440
-0.121674 1.820527 -0.566810
-0.112981 1.833611 -0.570238
-0.104162 1.841021 -0.572361
-0.095272 1.847727 -0.574321
-0.086199 1.866912 -0.579161
-0.077112 1.873924 -0.581192
-0.067976 1.879787 -0.582957
-0.058702 1.888939 -0.585482
-0.049348 1.897668 -0.587909
-0.039913 1.906190 -0.590288
-0.030268 1.917988 -0.593428
-0.020680 1.925652 -0.595609
-0.011000 1.933599 -0.597855
-0.001037 1.945407 -0.601000
0.008880 1.954294 -0.603466
0.018567 1.957948 -0.604712
0.028830 1.969656 -0.607836
0.039028 1.978762 -0.610354
0.048942 1.982877 -0.611706
0.059135 1.989845 -0.613724
0.069444 1.997302 -0.615856
0.080520 2.012359 -0.619769
0.090960 2.019109 -0.621736
0.101685 2.027970 -0.624198
0.112284 2.034711 -0.626163
0.122889 2.040819 -0.627979
0.133197 2.043731 -0.629042
0.144143 2.051662 -0.631285
0.155035 2.058463 -0.633262
0.165842 2.063994 -0.634939
0.176754 2.069825 -0.636685
0.186885 2.069521 -0.636982
0.196511 2.065620 -0.636426
0.205816 2.059731 -0.635395
0.214929 2.052868 -0.634129
0.224429 2.048800 -0.633519
0.234033 2.045531 -0.633094
0.243808 2.043392 -0.632933
0.252912 2.037399 -0.631853
0.261812 2.030505 -0.630554
0.270669 2.023671 -0.629263
0.279861 2.018898 -0.628458
0.288944 2.013725 -0.627551
0.298087 2.009038 -0.626756
0.307041 2.003561 -0.625767
0.315747 1.997072 -0.624532
0.324009 1.988705 -0.622843
0.332938 1.983722 -0.621955
0.341766 1.978430 -0.620988
0.349920 1.970317 -0.619341
0.358170 1.962888 -0.617851
0.366341 1.955357 -0.616331
0.374512 1.948061 -0.614860
0.383094 1.942646 -0.613834
0.391898 1.938252 -0.613046
0.400298 1.932375 -0.611897
0.408367 1.925379 -0.610472
0.415655 1.915640 -0.608383
0.423150 1.906943 -0.606536
0.431492 1.901542 -0.605474
0.438993 1.893273 -0.603716
0.447188 1.887629 -0.602582
0.455575 1.882756 -0.601627
0.464261 1.878973 -0.600927
0.472259 1.872958 -0.599683
0.479322 1.864022 -0.597727
0.486927 1.857023 -0.596231
0.494565 1.850272 -0.594787
0.502454 1.844423 -0.593552
0.510361 1.838727 -0.592347
0.517233 1.830016 -0.590406
0.524710 1.823267 -0.588930
0.533504 1.820460 -0.588400
0.541769 1.816130 -0.587493
0.549373 1.809973 -0.586136
0.554844 1.797977 -0.583358
0.563289 1.794373 -0.582602
0.570694 1.787972 -0.581161
0.578539 1.782823 -0.580013
0.585756 1.776073 -0.578470
0.591022 1.764370 -0.575718
0.599840 1.761941 -0.575202
0.608896 1.760074 -0.574815
0.614609 1.749862 -0.572396
0.620040 1.739131 -0.569842
0.626471 1.730993 -0.567907
0.631679 1.720051 -0.565283
0.637356 1.710388 -0.562960
0.645915 1.707554 -0.562282
0.654795 1.705415 -0.561764
0.661023 1.697228 -0.559770
0.667359 1.689376 -0.557847
0.675904 1.686475 -0.557116
0.682723 1.679779 -0.555455
0.688918 1.671793 -0.553472
0.694653 1.662913 -0.551264
0.700561 1.654498 -0.549159
0.707745 1.648814 -0.547707
0.713973 1.641198 -0.545778
0.720514 1.634280 -0.544010
0.728080 1.629459 -0.542741
0.734343 1.622068 -0.540842
0.738382 1.610401 -0.537901
0.745897 1.605593 -0.536613
0.752138 1.598360 -0.534730
0.756905 1.588410 -0.532185
0.763017 1.581084 -0.530269
0.769670 1.574818 -0.528604
0.775977 1.567962 -0.526792
0.782562 1.561663 -0.525110
0.789159 1.555432 -0.523443
0.794971 1.547872 -0.521453
0.799980 1.538998 -0.519146
0.807888 1.535222 -0.518067
0.813869 1.528180 -0.516203
0.820606 1.522494 -0.514668
0.827191 1.516618 -0.513092
0.835871 1.514264 -0.512368
0.842836 1.509123 -0.510981
0.846993 1.499535 -0.508535
0.859950 1.504145 -0.509508
0.878710 1.517792 -0.512662
0.867491 1.484368 -0.504533
0.871174 1.474651 -0.502110
0.883677 1.478634 -0.502992
0.888907 1.471556 -0.501240
0.883189 1.448242 -0.495617
0.892609 1.447907 -0.495528
0.897604 1.441136 -0.493920
0.909668 1.444863 -0.494856
0.911547 1.433904 -0.492298
0.914041 1.424121 -0.490050
0.923216 1.424085 -0.490172
0.932566 1.424409 -0.490412
0.941043 1.423631 -0.490421
0.948845 1.422065 -0.490274
0.955296 1.418810 -0.489755
-0.632780 1.165274 -0.383988
-0.628355 1.167782 -0.384700
-0.623078 1.168562 -0.385093
-0.617960 1.169916 -0.385633
-0.613825 1.173805 -0.386722
-0.611089 1.181302 -0.388579
-0.607408 1.186856 -0.390072
-0.603798 1.192880 -0.391692
-0.599115 1.196544 -0.392858
-0.593664 1.198511 -0.393703
-0.588236 1.200718 -0.394624
-0.583668 1.205323 -0.396063
-0.580831 1.214685 -0.398510
-0.575392 1.217508 -0.399629
-0.570401 1.221698 -0.401052
-0.567502 1.231785 -0.403720
-0.562126 1.235373 -0.405057
-0.556970 1.239734 -0.406570
-0.552454 1.246086 -0.408515
-0.547501 1.251393 -0.410255
-0.544191 1.261704 -0.413061
-0.538804 1.266148 -0.414643
-0.533485 1.270929 -0.416306
-0.528336 1.276373 -0.418116
-0.524578 1.286332 -0.420892
-0.518526 1.289277 -0.422184
-0.513479 1.295537 -0.424186
-0.509815 1.306524 -0.427203
-0.503926 1.310373 -0.428696
-0.498567 1.316105 -0.430594
-0.493562 1.323205 -0.432788
-0.487768 1.327696 -0.434419
-0.482863 1.335486 -0.436763
-0.477771 1.342796 -0.439004
-0.472015 1.347817 -0.440747
-0.466017 1.352016 -0.442307
-0.461377 1.361585 -0.445037
-0.455551 1.366730 -0.446799
-0.450250 1.374118 -0.449049
-0.444603 1.380285 -0.451028
-0.438860 1.386206 -0.452951
-0.433165 1.392494 -0.454950
-0.427570 1.399401 -0.457083
-0.422054 1.406872 -0.459337
-0.416173 1.412898 -0.461268
-0.409852 1.417019 -0.462771
-0.403392 1.420563 -0.464140
-0.396883 1.423928 -0.465463
-0.390543 1.428225 -0.466988
-0.386418 1.444214 -0.471125
-0.382500 1.462058 -0.475680
-0.376536 1.469490 -0.477902
-0.368710 1.466691 -0.477819
-0.362393 1.472420 -0.479647
-0.355880 1.477211 -0.481259
-0.348709 1.478132 -0.481991
-0.352009 1.545604 -0.497779
-0.347257 1.564430 -0.502578
-0.334138 1.527694 -0.494767
-0.326791 1.528821 -0.495533
-0.319894 1.533193 -0.497030
-0.312975 1.537627 -0.498536
-0.306675 1.547121 -0.501193
-0.300710 1.559979 -0.504618
-0.294539 1.572059 -0.507865
-0.287866 1.580660 -0.510315
-0.281216 1.590150 -0.512967
-0.274737 1.602056 -0.516174
-0.267984 1.612279 -0.518993
-0.261204 1.623169 -0.521966
-0.253990 1.630324 -0.524076
-0.247118 1.642215 -0.527278
-0.240275 1.655787 -0.530870
-0.232924 1.664303 -0.533292
-0.225358 1.670888 -0.535266
-0.217340 1.671556 -0.535865
-0.208962 1.666469 -0.535122
-0.201131 1.670061 -0.536389
-0.195788 1.721776 -0.548853
-0.187882 1.729930 -0.551188
-0.179927 1.738726 -0.553673
-0.171797 1.745061 -0.555582
-0.164272 1.771328 -0.562147
-0.155968 1.779069 -0.564387
-0.147680 1.790619 -0.567517
-0.139237 1.799791 -0.570091
-0.130654 1.805471 -0.571846
-0.122068 1.816517 -0.574859
-0.113386 1.829711 -0.578379
-0.104574 1.835397 -0.580133
-0.095709 1.840276 -0.581696
-0.086593 1.867061 -0.588422
-0.077523 1.871938 -0.589986
-0.068381 1.878001 -0.591829
-0.059102 1.887227 -0.594418
-0.049779 1.894761 -0.596607
-0.040427 1.900796 -0.598442
-0.030831 1.911666 -0.601421
-0.021237 1.919905 -0.603778
-0.011389 1.931718 -0.606983
-0.001268 1.946492 -0.610895
0.008616 1.954496 -0.613198
0.018270 1.957382 -0.614284
0.028691 1.971308 -0.617998
0.038611 1.976205 -0.619561
0.048668 1.982176 -0.621380
0.058984 1.990554 -0.623773
0.069530 2.000574 -0.626560
0.080091 2.009598 -0.629109
0.090605 2.017110 -0.631297
0.101349 2.026111 -0.633841
0.112316 2.036315 -0.636675
0.122494 2.038321 -0.637542
0.133051 2.043375 -0.639140
0.144333 2.054020 -0.642081
0.155363 2.061716 -0.644313
0.166038 2.065984 -0.645720
0.176558 2.068693 -0.646750
0.186772 2.068909 -0.647178
0.196379 2.064789 -0.646556
0.205781 2.059473 -0.645642
0.215219 2.054640 -0.644839
0.224805 2.050966 -0.644312
0.234377 2.047342 -0.643793
0.243579 2.041639 -0.642767
0.252881 2.036755 -0.641934
0.261648 2.029046 -0.640411
0.270533 2.022321 -0.639121
0.279499 2.016299 -0.637996
0.288592 2.011165 -0.637082
0.297671 2.006140 -0.636190
0.306863 2.001841 -0.635468
0.315639 1.995662 -0.634285
0.324075 1.988083 -0.632755
0.332786 1.982047 -0.631595
0.341778 1.977466 -0.630784
0.349708 1.968323 -0.628855
0.358486 1.963157 -0.627890
0.366802 1.956179 -0.626476
0.374202 1.945621 -0.624182
0.383029 1.941194 -0.623380
0.391686 1.936193 -0.622431
0.400273 1.931034 -0.621439
0.408403 1.924246 -0.620041
0.415291 1.912987 -0.617540
0.423291 1.906152 -0.616116
0.431205 1.899177 -0.614652
0.439479 1.893647 -0.613535
0.447058 1.885813 -0.611847
0.455298 1.880429 -0.610752
0.464089 1.876996 -0.610131
0.472371 1.871918 -0.609099
0.479971 1.864707 -0.607534
0.487550 1.857581 -0.605984
0.495036 1.850308 -0.604389
0.502267 1.842391 -0.602628
0.509898 1.835855 -0.601199
0.518386 1.831998 -0.600424
0.525786 1.824966 -0.598857
0.533717 1.819594 -0.597693
0.541778 1.814667 -0.596630
0.547948 1.804463 -0.594256
0.556757 1.801790 -0.593734
0.562970 1.792001 -0.591445
0.570563 1.786114 -0.590112
0.578530 1.781291 -0.589033
0.584993 1.772565 -0.586981
0.591771 1.764798 -0.585157
0.599615 1.759858 -0.584024
0.608056 1.756448 -0.583260
0.613912 1.746626 -0.580901
0.621214 1.740492 -0.579445
0.628460 1.734284 -0.577961
0.635387 1.727373 -0.576295
0.641894 1.719548 -0.574393
0.648069 1.711048 -0.572314
0.655025 1.704442 -0.570695
0.661238 1.696214 -0.568666
0.668189 1.689731 -0.567059
0.676279 1.685805 -0.566076
0.682021 1.676760 -0.563816
0.688398 1.669187 -0.561911
0.693509 1.659002 -0.559351
0.700508 1.652904 -0.557793
0.706749 1.645272 -0.555847
0.713842 1.639449 -0.554341
0.721070 1.633922 -0.552899
0.728194 1.628207 -0.551401
0.734497 1.620892 -0.549501
0.741392 1.614787 -0.547892
0.745867 1.604056 -0.545131
0.752296 1.597180 -0.543317
0.759192 1.591230 -0.541726
0.764435 1.582237 -0.539377
0.770681 1.575186 -0.537502
0.777183 1.568658 -0.535752
0.784040 1.562814 -0.534167
0.787854 1.551603 -0.531255
0.794887 1.546202 -0.529774
0.802433 1.541723 -0.528519
0.809519 1.536473 -0.527073
0.815988 1.530213 -0.525380
0.820257 1.520325 -0.522795
0.830636 1.520738 -0.522750
0.837082 1.514623 -0.521102
0.843626 1.508751 -0.519521
0.850352 1.503258 -0.518041
0.855501 1.495340 -0.515975
0.870557 1.503174 -0.517790
0.874901 1.494139 -0.515474
0.867122 1.466586 -0.508627
0.887246 1.482223 -0.512401
0.890320 1.471789 -0.509793
0.880240 1.441902 -0.502432
0.888992 1.440569 -0.502100
0.892730 1.431955 -0.500006
0.920884 1.459095 -0.506713
0.907285 1.425637 -0.498572
0.913730 1.421508 -0.497658
0.925460 1.425032 -0.498654
0.935283 1.425932 -0.499036
0.942701 1.423591 -0.498654
0.950112 1.421406 -0.498343
0.948952 1.407677 -0.495221
-0.634871 1.166996 -0.390207
-0.627664 1.163245 -0.389641
-0.623111 1.165723 -0.390404
-0.618970 1.169400 -0.391447
-0.614811 1.173296 -0.392568
-0.611630 1.179791 -0.394263
-0.607812 1.185063 -0.395734
-0.603621 1.189713 -0.397105
-0.599765 1.195454 -0.398733
-0.594391 1.197674 -0.399650
-0.589113 1.200326 -0.400681
-0.586729 1.210614 -0.403350
-0.582161 1.215587 -0.404922
-0.578779 1.223928 -0.407231
-0.573490 1.227471 -0.408544
-0.567906 1.230383 -0.409740
-0.563001 1.235309 -0.411381
-0.557321 1.238258 -0.412615
-0.552390 1.243455 -0.414344
-0.546790 1.246900 -0.415708
-0.544001 1.258706 -0.418884
-0.539162 1.264778 -0.420838
-0.534148 1.270502 -0.422726
-0.529266 1.276800 -0.424746
-0.524203 1.282711 -0.426688
-0.518909 1.288045 -0.428510
-0.513175 1.292090 -0.430054
-0.509575 1.303247 -0.433157
-0.504000 1.308121 -0.434888
-0.499295 1.316067 -0.437296
-0.494857 1.325157 -0.439958
-0.488742 1.328577 -0.441371
-0.482351 1.331046 -0.442570
-0.477852 1.340470 -0.445309
-0.472307 1.346256 -0.447240
-0.467088 1.353417 -0.449474
-0.461845 1.360679 -0.451731
-0.455572 1.364048 -0.453115
-0.450575 1.372630 -0.455662
-0.445086 1.379434 -0.457809
-0.439679 1.386779 -0.460075
-0.433920 1.392817 -0.462043
-0.428204 1.399210 -0.464088
-0.422522 1.405944 -0.466207
-0.416330 1.410526 -0.467834
-0.410300 1.415993 -0.469657
-0.403907 1.419853 -0.471110
-0.397453 1.423502 -0.472509
-0.391125 1.427872 -0.474067
-0.387663 1.447309 -0.479065
-0.383040 1.461454 -0.482857
-0.376828 1.467524 -0.484799
-0.370027 1.470508 -0.486026
-0.364154 1.478945 -0.488503
-0.357867 1.485304 -0.490498
-0.346985 1.509631 -0.497161
-0.342277 1.527606 -0.501839
-0.334567 1.526374 -0.502067
-0.327248 1.527697 -0.502880
-0.320159 1.530683 -0.504073
-0.313196 1.534741 -0.505510
-0.307561 1.549330 -0.509398
-0.301642 1.562669 -0.512995
-0.294702 1.568438 -0.514825
-0.288421 1.580362 -0.518092
-0.281751 1.589699 -0.520752
-0.274951 1.598564 -0.523301
-0.268461 1.611298 -0.526758
-0.261520 1.620502 -0.529385
-0.254211 1.626547 -0.531267
-0.247011 1.634452 -0.533586
-0.240405 1.650555 -0.537837
-0.233357 1.662815 -0.541184
-0.225731 1.668563 -0.542991
-0.217731 1.669479 -0.543651
-0.209628 1.668836 -0.543937
-0.202030 1.676845 -0.546270
-0.196061 1.717204 -0.556289
-0.188190 1.725803 -0.558769
-0.180263 1.734973 -0.561385
-0.172215 1.743237 -0.563785
-0.164533 1.764684 -0.569329
-0.156474 1.780146 -0.573449
-0.148043 1.786343 -0.575358
-0.139528 1.791259 -0.576959
-0.131112 1.806225 -0.580965
-0.122458 1.811698 -0.582698
-0.113772 1.821702 -0.585517
-0.104990 1.833063 -0.588662
-0.096125 1.837731 -0.590200
-0.087050 1.860498 -0.596091
-0.077954 1.868714 -0.598485
-0.068817 1.874649 -0.600328
-0.059444 1.888155 -0.603997
-0.050148 1.894108 -0.605845
-0.040759 1.901039 -0.607929
-0.031284 1.908317 -0.610096
-0.021723 1.915856 -0.612326
-0.011686 1.931851 -0.616606
-0.002148 1.935127 -0.617804
0.008234 1.952641 -0.622457
0.018089 1.958733 -0.624340
0.027925 1.963528 -0.625906
0.038115 1.972558 -0.628503
0.048428 1.981949 -0.631188
0.058967 1.992939 -0.634264
0.069286 1.999999 -0.636383
0.079819 2.008577 -0.638873
0.090298 2.015628 -0.640990
0.101212 2.026251 -0.643981
0.111847 2.033135 -0.646058
0.122592 2.040324 -0.648210
0.133281 2.046317 -0.650069
0.143983 2.051849 -0.651814
0.155175 2.060805 -0.654400
0.165857 2.065041 -0.655827
0.176498 2.068567 -0.657078
0.186645 2.068192 -0.657368
0.196154 2.063303 -0.656544
0.205608 2.058277 -0.655681
0.215087 2.053648 -0.654913
0.224827 2.050883 -0.654599
0.234478 2.047646 -0.654165
0.243614 2.041447 -0.652995
0.252630 2.034826 -0.651717
0.262423 2.032866 -0.651585
0.270814 2.023241 -0.649553
0.279500 2.015623 -0.648012
0.288331 2.009066 -0.646728
0.297497 2.004459 -0.645922
0.306496 1.999171 -0.644942
0.315502 1.994093 -0.644010
0.324218 1.987808 -0.642772
0.332795 1.981090 -0.641422
0.340977 1.972817 -0.639678
0.350356 1.970106 -0.639314
0.358502 1.962114 -0.637629
0.366889 1.955398 -0.636255
0.374807 1.946944 -0.634442
0.382911 1.939512 -0.632878
0.391592 1.934584 -0.631933
0.399770 1.927813 -0.630521
0.408243 1.922349 -0.629430
0.416090 1.914668 -0.627778
0.423882 1.906994 -0.626122
0.431965 1.900569 -0.624771
0.439966 1.894002 -0.623378
0.447775 1.886922 -0.621849
0.455351 1.879207 -0.620155
0.463804 1.874623 -0.619239
0.472373 1.870490 -0.618429
0.480409 1.864682 -0.617193
0.487929 1.857334 -0.615562
0.495136 1.849155 -0.613715
0.501111 1.837343 -0.610946
0.509678 1.833702 -0.610225
0.518091 1.829621 -0.609386
0.526677 1.826089 -0.608678
0.533954 1.818773 -0.607010
0.540524 1.809566 -0.604856
0.548739 1.805172 -0.603908
0.556148 1.798577 -0.602397
0.562384 1.788872 -0.600093
0.569695 1.782246 -0.598557
0.578440 1.779518 -0.597997
0.586600 1.775238 -0.597037
0.592417 1.764929 -0.594546
0.599998 1.759293 -0.593226
0.606348 1.750621 -0.591131
0.614120 1.745600 -0.589949
0.620139 1.736330 -0.587684
0.628345 1.732471 -0.586779
0.633796 1.722055 -0.584206
0.641884 1.717989 -0.583230
0.649853 1.713646 -0.582175
0.655632 1.704300 -0.579845
0.661888 1.696157 -0.577811
0.668868 1.689720 -0.576199
0.674813 1.681056 -0.574014
0.682693 1.676698 -0.572910
0.688775 1.668477 -0.570819
0.696224 1.663240 -0.569475
0.700492 1.651358 -0.566440
0.707506 1.645327 -0.564877
0.714051 1.638367 -0.563070
0.721451 1.633184 -0.561704
0.728477 1.627260 -0.560143
0.735716 1.621783 -0.558686
0.740183 1.610926 -0.555862
0.745871 1.602558 -0.553660
0.753461 1.597885 -0.552385
0.760584 1.592333 -0.550881
0.766452 1.584469 -0.548787
0.771851 1.575816 -0.546489
0.778250 1.569070 -0.544667
0.785214 1.563389 -0.543110
0.792352 1.558046 -0.541634
0.796721 1.547873 -0.538938
0.805385 1.545285 -0.538152
0.810380 1.536376 -0.535773
0.817921 1.531903 -0.534512
0.824996 1.526673 -0.533062
0.831387 1.520356 -0.531341
0.836580 1.512149 -0.529149
0.843283 1.506519 -0.527611
0.850691 1.502101 -0.526385
0.856597 1.495357 -0.524583
0.866208 1.494559 -0.524286
0.876611 1.494999 -0.524311
0.881122 1.486350 -0.522067
0.885798 1.478137 -0.519949
0.894076 1.475551 -0.519262
0.891215 1.456394 -0.514433
0.891145 1.441787 -0.510767
0.898656 1.438637 -0.510002
0.921042 1.457222 -0.514719
0.921560 1.444069 -0.511491
0.915259 1.421526 -0.505930
0.931187 1.430900 -0.508417
0.935455 1.423887 -0.506815
0.943800 1.422776 -0.506727
0.949604 1.418312 -0.505827
0.959305 1.419376 -0.506351
-0.629273 1.151397 -0.392778
-0.627993 1.161057 -0.395063
-0.625579 1.168505 -0.396910
-0.621636 1.172743 -0.398104
-0.617364 1.176482 -0.399222
-0.612739 1.179637 -0.400245
-0.606615 1.179421 -0.400575
-0.603512 1.186721 -0.402545
-0.601102 1.196062 -0.404984
-0.596706 1.200812 -0.406464
-0.592232 1.205612 -0.407980
-0.586450 1.207294 -0.408847
-0.581750 1.211941 -0.410376
-0.579502 1.223280 -0.413380
-0.574549 1.227775 -0.414920
-0.569226 1.231458 -0.416301
-0.563691 1.234719 -0.417606
-0.558152 1.238107 -0.418951
-0.554734 1.247646 -0.421659
-0.546362 1.243217 -0.421309
-0.545159 1.259638 -0.425559
-0.539698 1.263916 -0.427145
-0.535014 1.270664 -0.429285
-0.529498 1.275051 -0.430909
-0.524402 1.280860 -0.432854
-0.519776 1.288318 -0.435171
-0.514978 1.295425 -0.437416
-0.510153 1.302632 -0.439687
-0.504706 1.307953 -0.441537
-0.498574 1.311061 -0.442891
-0.494876 1.322643 -0.446153
-0.489185 1.327538 -0.447909
-0.483469 1.332445 -0.449667
-0.477891 1.337953 -0.451558
-0.472598 1.344650 -0.453718
-0.467403 1.351890 -0.456000
-0.462110 1.358943 -0.458238
-0.456605 1.365343 -0.460325
-0.451134 1.372049 -0.462480
-0.445468 1.378126 -0.464487
-0.439837 1.384510 -0.466562
-0.434410 1.391945 -0.468876
-0.428903 1.399260 -0.471159
-0.422750 1.403889 -0.472819
-0.416804 1.409577 -0.474719
-0.410674 1.414566 -0.476452
-0.404255 1.418295 -0.477888
-0.397869 1.422268 -0.479375
-0.391821 1.428047 -0.481278
-0.387637 1.443721 -0.485488
-0.382529 1.455186 -0.488717
-0.375948 1.459091 -0.490173
-0.371807 1.476856 -0.494878
-0.365246 1.481507 -0.496504
-0.357460 1.479036 -0.496449
-0.350078 1.478796 -0.496910
-0.345585 1.496720 -0.501652
-0.340424 1.511328 -0.505613
-0.335001 1.525034 -0.509364
-0.327630 1.526001 -0.510095
-0.320444 1.528278 -0.511131
-0.313582 1.533047 -0.512754
-0.307780 1.546301 -0.516392
-0.301718 1.558396 -0.519756
-0.295402 1.569261 -0.522826
-0.288598 1.576694 -0.525076
-0.282038 1.586916 -0.527991
-0.275159 1.594961 -0.530385
-0.268913 1.610001 -0.534454
-0.261636 1.615686 -0.536280
-0.254603 1.624586 -0.538876
-0.247167 1.629733 -0.540567
-0.239541 1.633083 -0.541823
-0.234216 1.666805 -0.550401
-0.226407 1.670388 -0.551714
-0.218726 1.676324 -0.553592
-0.210695 1.677518 -0.554321
-0.203701 1.696844 -0.559437
-0.196705 1.719563 -0.565381
-0.188770 1.727236 -0.567680
-0.180831 1.736472 -0.570357
-0.172860 1.747161 -0.573388
-0.164936 1.762186 -0.577476
-0.156559 1.766599 -0.578979
-0.148467 1.784430 -0.583755
-0.139986 1.791148 -0.585820
-0.131558 1.805847 -0.589836
-0.122893 1.811127 -0.591550
-0.114203 1.821735 -0.594568
-0.105413 1.835194 -0.598285
-0.096518 1.841843 -0.600335
-0.087485 1.856648 -0.604386
-0.078385 1.865653 -0.607015
-0.069089 1.880481 -0.611077
-0.059824 1.887611 -0.613247
-0.050501 1.894177 -0.615278
-0.041093 1.901281 -0.617442
-0.031596 1.908775 -0.619702
-0.021865 1.920020 -0.622888
-0.012052 1.930545 -0.625898
-0.002111 1.941484 -0.629013
0.007826 1.950383 -0.631624
0.017754 1.957600 -0.633819
0.027720 1.964235 -0.635870
0.037726 1.970429 -0.637811
0.048399 1.984544 -0.641721
0.058585 1.990806 -0.643681
0.068872 1.997436 -0.645732
0.079404 2.005989 -0.648262
0.089961 2.013834 -0.650617
0.100696 2.022603 -0.653203
0.111319 2.029392 -0.655296
0.121897 2.035074 -0.657112
0.132802 2.043054 -0.659503
0.143286 2.046749 -0.660821
0.154007 2.051974 -0.662522
0.165518 2.062864 -0.665643
0.176229 2.066876 -0.667039
0.186438 2.066891 -0.667432
0.196044 2.062614 -0.666744
0.205550 2.057852 -0.665931
0.215167 2.054035 -0.665350
0.224690 2.049777 -0.664655
0.234273 2.046060 -0.664091
0.243758 2.041898 -0.663412
0.253148 2.037338 -0.662628
0.262008 2.029960 -0.661128
0.270763 2.022329 -0.659559
0.279660 2.015775 -0.658257
0.288628 2.009852 -0.657108
0.297472 2.003517 -0.655851
0.306367 1.997664 -0.654711
0.315509 1.993207 -0.653919
0.324394 1.987670 -0.652848
0.332796 1.980083 -0.651253
0.341602 1.974580 -0.650180
0.350384 1.969133 -0.649116
0.358277 1.960015 -0.647114
0.366382 1.952094 -0.645410
0.375210 1.947414 -0.644524
0.383333 1.939991 -0.642935
0.391054 1.931195 -0.640989
0.399390 1.925055 -0.639714
0.407924 1.919826 -0.638666
0.416478 1.914790 -0.637660
0.424573 1.908180 -0.636247
0.432246 1.900208 -0.634480
0.439815 1.892079 -0.632665
0.448102 1.886647 -0.631533
0.456404 1.881378 -0.630437
0.464599 1.875848 -0.629267
0.472847 1.870597 -0.628162
0.479676 1.860835 -0.625894
0.487708 1.855148 -0.624664
0.496156 1.850862 -0.623786
0.502984 1.841628 -0.621631
0.509298 1.831039 -0.619120
0.517800 1.827232 -0.618343
0.526117 1.822910 -0.617427
0.533323 1.815409 -0.615686
0.540919 1.809157 -0.614259
0.548749 1.803653 -0.613016
0.556697 1.798548 -0.611868
0.561776 1.785661 -0.608709
0.569445 1.780019 -0.607406
0.578350 1.777718 -0.606956
0.586943 1.774570 -0.606280
0.593151 1.765259 -0.604008
0.599729 1.757046 -0.602010
0.607265 1.751358 -0.600654
0.612352 1.739663 -0.597740
0.618116 1.729831 -0.595297
0.626772 1.727117 -0.594683
0.635349 1.724183 -0.594003
0.641859 1.716369 -0.592054
0.649594 1.711483 -0.590853
0.657716 1.707498 -0.589876
0.662988 1.697080 -0.587228
0.668941 1.688327 -0.585001
0.676229 1.682617 -0.583551
0.683171 1.676185 -0.581905
0.690967 1.671627 -0.580735
0.696640 1.662573 -0.578395
0.702933 1.654921 -0.576408
0.708379 1.645590 -0.573979
0.715192 1.639155 -0.572289
0.722401 1.633558 -0.570807
0.729675 1.628109 -0.569355
0.734614 1.618077 -0.566712
0.739250 1.607575 -0.563941
0.746712 1.602638 -0.562598
0.754304 1.597948 -0.561313
0.760420 1.590484 -0.559304
0.767841 1.585501 -0.557930
0.773100 1.576560 -0.555529
0.779127 1.569109 -0.553508
0.786499 1.564134 -0.552120
0.793954 1.559318 -0.550770
0.800909 1.553639 -0.549194
0.804776 1.542641 -0.546246
0.811424 1.536567 -0.544566
0.816971 1.528681 -0.542419
0.825193 1.525373 -0.541452
0.830988 1.518045 -0.539453
0.836944 1.511080 -0.537550
0.846259 1.509659 -0.537079
0.851147 1.501119 -0.534783
0.863068 1.503891 -0.535403
0.862993 1.487730 -0.531167
0.877900 1.495188 -0.533011
0.884053 1.489015 -0.531366
0.879799 1.467118 -0.525697
0.884876 1.459753 -0.523778
0.887293 1.448591 -0.520902
0.909653 1.467182 -0.525686
0.917358 1.464005 -0.524902
0.920576 1.454445 -0.522502
0.917977 1.436783 -0.518045
0.922519 1.429702 -0.516331
0.927824 1.423926 -0.514979
0.936859 1.423575 -0.515051
0.943946 1.420645 -0.514489
0.950960 1.417792 -0.513976
0.948676 1.402451 -0.510277
-0.638162 1.168430 -0.402333
-0.628064 1.158299 -0.400364
