ply
format ascii 1.0
comment ---
element vertex 1704
property float x
property float y
property float z
element face 0
property list uchar uint vertex_indices
end_header
0.399945 1.799455 -1.498038
0.409922 1.795212 -1.497749
0.418454 1.783889 -1.492203
0.427871 1.777328 -1.490188
0.435213 1.761251 -1.481068
0.444418 1.754395 -1.478813
0.458653 1.770100 -1.493467
0.472278 1.782206 -1.505487
0.483084 1.781667 -1.508046
0.491687 1.771943 -1.503692
0.498523 1.755448 -1.494207
0.507095 1.746395 -1.490326
0.516482 1.740737 -1.489012
0.526903 1.739067 -1.490735
0.538203 1.740543 -1.494870
0.544317 1.723259 -1.484689
0.556361 1.727343 -1.490841
0.558212 1.696179 -1.469959
0.567598 1.691458 -1.469340
0.578305 1.691143 -1.472124
0.587729 1.686571 -1.471635
0.599390 1.689110 -1.476661
0.608392 1.683185 -1.475142
0.616468 1.674540 -1.471504
0.625767 1.669733 -1.470852
0.633930 1.661653 -1.467641
0.642039 1.653584 -1.464432
0.651129 1.648443 -1.463515
0.660172 1.643226 -1.462539
0.668566 1.636301 -1.460217
0.676471 1.628179 -1.456944
0.685337 1.622736 -1.455786
0.694048 1.616951 -1.454359
0.703549 1.613240 -1.454584
0.711907 1.606670 -1.452532
0.716986 1.592139 -1.444103
0.724425 1.583653 -1.440494
0.732442 1.576691 -1.438099
0.741603 1.572506 -1.437942
0.750206 1.567041 -1.436756
0.757105 1.557760 -1.432478
0.764002 1.548634 -1.428314
0.772149 1.542415 -1.426505
0.780104 1.535847 -1.424411
0.786342 1.525687 -1.419372
0.795070 1.520943 -1.418764
0.803752 1.516121 -1.418099
0.808964 1.504230 -1.411605
0.820377 1.505047 -1.415603
0.828487 1.499163 -1.414072
0.835035 1.490268 -1.410038
0.840599 1.479600 -1.404516
0.464475 0.731625 -0.784214
0.468128 0.727801 -0.782754
0.468602 0.718211 -0.776432
0.471437 0.713071 -0.773843
0.474980 0.709265 -0.772378
0.478405 0.705291 -0.770769
0.483484 0.704225 -0.771635
0.487419 0.701170 -0.770813
0.490393 0.696509 -0.768617
0.493631 0.692345 -0.766844
0.496685 0.687922 -0.764845
0.500470 0.684736 -0.763911
0.504458 0.681892 -0.763278
0.508303 0.678831 -0.762459
0.512639 0.676548 -0.762324
0.516006 0.672762 -0.760881
0.520238 0.670325 -0.760622
0.524637 0.668133 -0.760587
0.528751 0.665506 -0.760177
0.532684 0.662611 -0.759537
0.538223 0.662051 -0.760977
0.544250 0.662139 -0.763013
0.546663 0.657034 -0.760433
0.550647 0.654182 -0.759866
0.555533 0.652578 -0.760429
0.562411 0.653666 -0.763436
0.566142 0.650406 -0.762540
0.570124 0.647488 -0.761959
0.574014 0.644445 -0.761274
0.578297 0.641914 -0.761065
0.583359 0.640373 -0.761774
0.591204 0.642340 -0.765729
0.594693 0.638704 -0.764551
0.598524 0.635502 -0.763781
0.603857 0.634145 -0.764735
0.610150 0.633912 -0.766757
0.615282 0.632213 -0.767436
0.619604 0.629512 -0.767191
0.623136 0.625869 -0.766071
0.625483 0.620856 -0.763660
0.628154 0.616251 -0.761633
0.629412 0.610070 -0.758102
0.634207 0.607918 -0.758415
0.640646 0.607559 -0.760466
0.645680 0.605590 -0.760994
0.649097 0.601836 -0.759811
0.653154 0.598775 -0.759305
0.657498 0.596009 -0.759095
0.658927 0.590177 -0.755890
0.665212 0.589426 -0.757670
0.669856 0.586938 -0.757757
0.673875 0.583798 -0.757209
0.677500 0.580262 -0.756269
0.682582 0.578174 -0.756776
0.688683 0.577058 -0.758270
0.693542 0.574698 -0.758524
0.697945 0.571888 -0.758328
0.701551 0.568325 -0.757363
0.704435 0.564104 -0.755717
0.709697 0.562116 -0.756342
0.714658 0.559841 -0.756670
0.721526 0.559286 -0.758772
0.726514 0.557017 -0.759098
0.730533 0.553897 -0.758523
0.733739 0.550095 -0.757211
0.738193 0.547418 -0.757049
0.742179 0.544370 -0.756469
0.746686 0.541800 -0.756364
0.751307 0.539361 -0.756364
0.756818 0.537694 -0.757155
0.763813 0.537268 -0.759247
0.767812 0.534418 -0.758698
0.769897 0.530092 -0.756501
0.773420 0.527001 -0.755580
0.781725 0.527741 -0.758780
0.787764 0.526719 -0.760019
0.785168 0.519085 -0.753941
0.790313 0.517530 -0.754465
0.799923 0.519407 -0.758731
0.811708 0.522911 -0.764769
0.818596 0.522754 -0.766702
0.827439 0.524078 -0.770234
0.834021 0.523775 -0.771895
0.838928 0.522313 -0.772193
0.846306 0.522695 -0.774502
0.839247 0.512874 -0.765207
-0.350733 1.429089 -1.072883
-0.342855 1.421410 -1.070155
-0.337697 1.424317 -1.074171
-0.331974 1.425612 -1.077140
-0.326207 1.427270 -1.080327
-0.315321 1.409034 -1.070663
-0.282166 1.408403 -1.080283
-0.269162 1.446602 -1.111071
-0.256525 1.458145 -1.122470
-0.198657 1.494055 -1.160924
-0.186915 1.528415 -1.187496
-0.177765 1.525273 -1.187177
-0.171580 1.543485 -1.201206
-0.125569 1.613412 -1.259405
0.083456 1.814329 -1.443861
0.094462 1.837982 -1.462913
0.104810 1.830299 -1.459867
0.114748 1.813280 -1.450200
0.127882 1.879350 -1.499521
0.138552 1.876130 -1.499729
0.148761 1.864603 -1.494025
0.158676 1.850108 -1.486190
0.168712 1.839989 -1.481466
0.178900 1.833592 -1.479402
0.189743 1.836836 -1.484263
0.201503 1.850923 -1.496954
0.212091 1.849351 -1.498413
0.223143 1.852906 -1.503591
0.232288 1.836265 -1.494182
0.241487 1.821826 -1.486343
0.252930 1.829454 -1.494513
0.265708 1.847875 -1.510580
0.271740 1.808077 -1.484259
0.279492 1.785459 -1.470397
0.294307 1.818477 -1.497224
0.303732 1.809237 -1.493165
0.313654 1.804065 -1.492088
0.325077 1.809252 -1.498645
0.334995 1.804144 -1.497638
0.344570 1.797106 -1.495209
0.353840 1.788566 -1.491662
0.360766 1.766796 -1.478286
0.383165 1.773606 -1.488934
0.391375 1.760668 -1.482091
0.401942 1.760446 -1.484748
0.415927 1.777107 -1.500092
0.423356 1.760959 -1.490837
0.430671 1.745024 -1.481710
0.439542 1.736930 -1.478473
0.451275 1.741861 -1.485086
0.466554 1.761774 -1.503095
0.477732 1.763200 -1.507139
0.486103 1.752831 -1.502224
0.494964 1.744795 -1.499074
0.503146 1.734327 -1.494057
0.514265 1.735472 -1.497929
0.528750 1.749042 -1.511370
0.532589 1.722850 -1.494259
0.541774 1.716827 -1.492643
0.549091 1.704378 -1.486058
0.557119 1.694757 -1.481641
0.567607 1.693667 -1.483839
0.581463 1.703572 -1.494615
0.590733 1.698153 -1.493487
0.596537 1.681855 -1.483850
0.602446 1.666386 -1.474824
0.612408 1.663701 -1.475810
0.622600 1.661671 -1.477324
0.635210 1.666660 -1.484393
0.645201 1.663815 -1.485302
0.650604 1.648000 -1.475934
0.657758 1.637472 -1.470731
0.667317 1.633731 -1.470921
0.676141 1.628025 -1.469548
0.683550 1.618674 -1.465258
0.692769 1.614186 -1.464857
0.701902 1.609506 -1.464307
0.709183 1.600229 -1.460054
0.719510 1.598614 -1.461984
0.727400 1.591039 -1.459099
0.732811 1.577684 -1.451511
0.740692 1.570409 -1.448846
0.749753 1.565959 -1.448484
0.757651 1.558885 -1.445979
0.763926 1.548282 -1.440575
0.772289 1.542471 -1.439095
0.780148 1.535621 -1.436759
0.786933 1.526560 -1.432592
0.794861 1.520052 -1.430529
0.803179 1.514419 -1.429193
0.811898 1.509648 -1.428578
0.819255 1.502150 -1.425692
0.826477 1.494476 -1.422654
0.833197 1.485917 -1.418868
0.841741 1.480995 -1.418134
0.848402 1.472506 -1.414397
0.856221 1.466301 -1.412585
0.862826 1.457899 -1.408911
0.869877 1.450416 -1.406011
0.875434 1.440321 -1.400879
0.880089 1.428772 -1.394486
0.486221 0.708339 -0.781500
0.487652 0.700919 -0.776921
0.489860 0.694938 -0.773570
0.492831 0.690317 -0.771389
0.496418 0.686765 -0.770133
0.500090 0.683377 -0.769021
0.504073 0.680510 -0.768366
0.508323 0.678073 -0.768095
0.511771 0.674381 -0.766725
0.515824 0.671648 -0.766203
0.519180 0.667857 -0.764750
0.523257 0.665178 -0.764286
0.527192 0.662289 -0.763642
0.530919 0.659098 -0.762734
0.533821 0.654720 -0.760766
0.538770 0.653316 -0.761472
0.542915 0.650738 -0.761134
0.547095 0.648204 -0.760844
0.550423 0.644483 -0.759486
0.555065 0.642576 -0.759783
0.560554 0.641787 -0.761116
0.564272 0.638585 -0.760258
0.569084 0.636828 -0.760736
0.574295 0.635562 -0.761682
0.579941 0.634812 -0.763125
0.584993 0.633250 -0.763838
0.589345 0.630772 -0.763714
0.594520 0.629299 -0.764543
0.600235 0.628448 -0.765976
0.604684 0.626005 -0.765932
0.610291 0.624930 -0.767197
0.612856 0.620198 -0.765012
0.615945 0.616111 -0.763440
0.620459 0.613692 -0.763466
0.623998 0.610134 -0.762412
0.625670 0.604466 -0.759331
0.630008 0.601834 -0.759178
0.636442 0.601503 -0.761270
0.640331 0.598319 -0.760611
0.645060 0.596036 -0.760843
0.649750 0.593688 -0.761024
0.652526 0.589295 -0.759200
0.654188 0.583761 -0.756244
0.657914 0.580408 -0.755442
0.665120 0.580609 -0.758192
0.669472 0.577851 -0.758008
0.673429 0.574691 -0.757422
0.677332 0.571476 -0.756784
0.682053 0.569064 -0.756959
0.686348 0.566228 -0.756706
0.691676 0.564375 -0.757458
0.695956 0.561514 -0.757178
0.700904 0.559279 -0.757540
0.703751 0.555101 -0.755885
0.707970 0.552214 -0.755551
0.714285 0.551228 -0.757192
0.720710 0.550317 -0.758911
0.724697 0.547236 -0.758339
0.729342 0.544757 -0.758380
0.732802 0.541279 -0.757334
0.736775 0.538283 -0.756770
0.741434 0.535909 -0.756835
0.748128 0.535265 -0.758732
0.753579 0.533594 -0.759496
0.758450 0.531477 -0.759741
0.762928 0.529084 -0.759642
0.765598 0.525296 -0.757969
0.772254 0.524748 -0.759792
0.778585 0.523970 -0.761320
0.783590 0.522195 -0.761700
0.787553 0.519675 -0.761197
0.789073 0.515370 -0.758638
0.799900 0.518196 -0.763975
0.806545 0.517879 -0.765755
0.812220 0.516887 -0.766721
0.817348 0.515553 -0.767236
0.824555 0.515798 -0.769476
0.833305 0.517196 -0.772971
0.836979 0.514993 -0.772309
0.859330 0.526109 -0.786800
-0.340336 1.384984 -1.053287
-0.343466 1.417609 -1.076497
-0.339417 1.424501 -1.083141
-0.334103 1.427218 -1.087080
-0.326735 1.422486 -1.086166
-0.322798 1.431722 -1.094313
-0.311287 1.437731 -1.102467
-0.260371 1.429904 -1.111338
-0.254984 1.439866 -1.119860
-0.231548 1.573707 -1.220834
-0.194049 1.502929 -1.178725
-0.181408 1.475679 -1.162073
-0.157740 1.626511 -1.273718
-0.145364 1.601190 -1.258294
-0.134666 1.588414 -1.251402
-0.118287 1.608528 -1.268910
-0.108817 1.607121 -1.269810
-0.096301 1.680096 -1.323946
0.008728 0.859730 -0.764756
0.014184 0.851040 -0.759740
0.019518 0.843005 -0.755170
0.080939 1.797821 -1.444741
0.091415 1.801940 -1.450016
0.102800 1.836464 -1.477042
0.113660 1.844007 -1.484864
0.123148 1.814661 -1.466271
0.135592 1.857873 -1.499744
0.146385 1.858925 -1.503007
0.155955 1.838001 -1.490446
0.166258 1.832559 -1.489033
0.177255 1.838122 -1.495587
0.188024 1.839596 -1.499212
0.197803 1.828196 -1.493507
0.207113 1.812659 -1.484780
0.217824 1.814409 -1.488633
0.228816 1.818741 -1.494398
0.238743 1.811985 -1.492078
0.250465 1.822493 -1.502419
0.260823 1.819743 -1.503067
0.265616 1.770313 -1.469359
0.278377 1.789197 -1.485922
0.286430 1.770166 -1.474534
0.297015 1.771192 -1.477964
0.308889 1.781068 -1.487984
0.319866 1.783955 -1.492856
0.330339 1.783183 -1.495029
0.338836 1.769907 -1.487884
0.346968 1.755210 -1.479655
0.269435 1.197437 -1.066195
0.277286 1.200529 -1.070457
0.423389 1.715847 -1.472357
0.434733 1.719736 -1.478176
0.442748 1.708405 -1.472401
0.466738 1.720786 -1.487682
0.479521 1.729561 -1.497371
0.481920 1.695900 -1.474407
0.499898 1.725013 -1.499829
0.506176 1.707659 -1.489405
0.515406 1.702046 -1.488050
0.524625 1.696506 -1.486752
0.537050 1.702578 -1.494502
0.544516 1.690839 -1.488386
0.557774 1.699363 -1.498107
0.569041 1.700698 -1.502240
0.578787 1.696827 -1.502306
0.590245 1.698506 -1.506752
0.590513 1.664570 -1.483098
0.601000 1.663537 -1.485386
0.609484 1.656315 -1.482783
0.620284 1.656146 -1.485783
0.633330 1.662431 -1.493948
0.645919 1.667043 -1.500821
0.650979 1.650103 -1.490475
0.654737 1.630031 -1.477572
0.663485 1.624129 -1.476018
0.674026 1.623100 -1.478393
0.683648 1.619563 -1.478760
0.691113 1.610446 -1.474613
0.699497 1.603845 -1.472499
0.708148 1.598004 -1.471000
0.717076 1.592908 -1.470111
0.726388 1.588782 -1.470018
0.734535 1.581893 -1.467668
0.740195 1.569277 -1.460603
0.748688 1.563459 -1.459117
0.757309 1.557989 -1.457920
0.765429 1.551446 -1.455837
0.773185 1.544178 -1.453149
0.779265 1.533376 -1.447514
0.786666 1.525593 -1.444382
0.794582 1.519001 -1.442239
0.803905 1.515395 -1.442601
0.811426 1.508092 -1.439866
0.817693 1.498353 -1.435071
0.824461 1.489766 -1.431236
0.831553 1.481932 -1.428031
0.839677 1.476185 -1.426596
0.847572 1.470044 -1.424827
0.854119 1.461421 -1.420940
0.860929 1.453397 -1.417558
0.869184 1.448108 -1.416521
0.879040 1.445719 -1.417992
0.886688 1.439352 -1.416045
0.894981 1.434160 -1.415120
0.901599 1.426084 -1.411698
0.908145 1.417973 -1.408241
0.905719 1.394835 -1.391644
0.509927 0.689099 -0.782300
0.508027 0.676805 -0.773317
0.511662 0.673388 -0.772186
0.515190 0.669825 -0.770926
0.518683 0.666234 -0.769644
0.523308 0.664365 -0.769910
0.528386 0.663148 -0.770774
0.531237 0.658630 -0.768672
0.534221 0.654346 -0.766780
0.537325 0.650271 -0.765077
0.541199 0.647314 -0.764394
0.545473 0.644917 -0.764230
0.549628 0.642347 -0.763917
0.553835 0.639837 -0.763669
0.557625 0.636757 -0.762905
0.561372 0.633620 -0.762096
0.564554 0.629744 -0.760607
0.568615 0.627030 -0.760204
0.572633 0.624252 -0.759753
0.579877 0.625561 -0.763149
0.583674 0.622443 -0.762409
0.587338 0.619157 -0.761521
0.589701 0.614280 -0.759128
0.597569 0.616109 -0.763120
0.603942 0.616029 -0.765330
0.607728 0.612815 -0.764563
0.611777 0.609906 -0.764097
0.615380 0.606472 -0.763136
0.617292 0.601107 -0.760307
0.622575 0.599595 -0.761224
0.625834 0.595782 -0.759911
0.630335 0.593351 -0.759957
0.635709 0.591850 -0.760933
0.639752 0.588870 -0.760467
0.641946 0.583913 -0.758044
0.646097 0.581054 -0.757706
0.649918 0.577842 -0.757023
0.656170 0.577131 -0.758857
0.661241 0.575161 -0.759445
0.665989 0.572840 -0.759689
0.668876 0.568647 -0.758037
0.672862 0.565561 -0.757507
0.677277 0.562895 -0.757407
0.681404 0.559946 -0.757016
0.685905 0.557356 -0.756993
0.689809 0.554202 -0.756382
0.694979 0.552238 -0.757002
0.700050 0.550173 -0.757514
0.704257 0.547317 -0.757189
0.709202 0.545140 -0.757566
0.715547 0.544212 -0.759256
0.720023 0.541621 -0.759169
0.723420 0.538114 -0.758080
0.727221 0.535000 -0.757378
0.731952 0.532719 -0.757539
0.736744 0.530517 -0.757757
0.742283 0.528967 -0.758651
0.748624 0.528100 -0.760259
0.749876 0.523099 -0.757300
0.756154 0.522253 -0.758851
0.761742 0.520878 -0.759780
0.769078 0.520922 -0.762239
0.773586 0.518767 -0.762210
0.778042 0.516633 -0.762146
0.783855 0.515606 -0.763264
0.786601 0.512294 -0.761755
0.786262 0.506755 -0.757651
0.797432 0.509934 -0.763344
0.801487 0.507837 -0.763003
0.807193 0.507026 -0.764060
0.815561 0.508206 -0.767333
0.822919 0.508685 -0.769751
0.826550 0.506545 -0.769097
0.834301 0.507405 -0.771834
-0.351785 1.421301 -1.085442
-0.343223 1.410750 -1.080819
-0.341169 1.424886 -1.092264
-0.336328 1.429262 -1.097345
-0.330078 1.428774 -1.099229
-0.325203 1.434207 -1.104982
-0.318638 1.433518 -1.106695
-0.282492 1.454895 -1.133435
-0.245905 1.500902 -1.176217
-0.227357 1.535342 -1.205312
-0.223204 1.561083 -1.224721
-0.154440 1.579093 -1.252123
-0.137262 1.588708 -1.262478
-0.130536 1.611674 -1.280247
0.002153 0.862832 -0.772000
0.007937 0.849125 -0.763401
0.013334 0.841081 -0.758777
0.018627 0.833361 -0.754370
0.023660 0.831500 -0.754105
0.028677 0.829345 -0.753632
0.033644 0.828575 -0.754147
0.038621 0.826158 -0.753494
0.088782 1.782591 -1.448734
0.099805 1.808035 -1.469438
0.110279 1.807916 -1.471753
0.120424 1.799163 -1.467836
0.131005 1.802450 -1.472645
0.142075 1.814700 -1.483995
0.152100 1.805464 -1.479756
0.163297 1.817017 -1.490672
0.174094 1.820475 -1.495724
0.184938 1.823912 -1.500788
0.193424 1.796521 -1.483275
0.202515 1.779930 -1.473640
0.213116 1.782179 -1.477846
0.224552 1.792803 -1.488255
0.235481 1.797054 -1.494004
0.246286 1.799549 -1.498485
0.255767 1.789839 -1.493938
0.266157 1.788634 -1.495705
0.273470 1.762532 -1.478946
0.283451 1.759197 -1.479118
0.292883 1.751936 -1.476366
0.303150 1.751049 -1.478385
0.249937 1.217724 -1.084584
0.259218 1.185498 -1.064095
0.266456 1.185601 -1.066093
0.273101 1.182337 -1.065546
0.278199 1.170936 -1.058805
0.283803 1.162739 -1.054488
0.290625 1.161034 -1.055122
0.297672 1.160421 -1.056600
0.305519 1.163529 -1.060948
0.476137 1.676181 -1.471812
0.505778 1.668900 -1.474975
0.531329 1.724036 -1.521226
0.529560 1.678374 -1.488411
0.542376 1.685848 -1.497343
0.551529 1.680265 -1.496005
0.563755 1.685132 -1.502943
0.567542 1.661814 -1.487553
0.573904 1.647635 -1.479367
0.587846 1.657903 -1.490642
0.597536 1.654428 -1.490995
0.607555 1.651957 -1.492160
0.614705 1.640879 -1.486428
0.628877 1.650667 -1.497467
0.641471 1.655422 -1.504505
0.648401 1.643879 -1.498408
0.651993 1.623359 -1.485015
0.658414 1.611149 -1.478316
0.670205 1.613608 -1.483536
0.681658 1.614966 -1.487890
0.690821 1.610232 -1.487289
0.698931 1.602853 -1.484524
0.704667 1.589662 -1.476976
0.712184 1.581157 -1.473260
0.721261 1.576573 -1.472775
0.731851 1.575612 -1.475296
0.739115 1.566773 -1.471297
0.747292 1.560189 -1.469165
0.755625 1.554042 -1.467395
0.764417 1.548984 -1.466536
0.772288 1.541931 -1.464010
0.779872 1.534346 -1.461034
0.786694 1.525241 -1.456770
0.794832 1.519048 -1.454956
0.802916 1.512803 -1.453099
0.810187 1.504956 -1.449883
0.816356 1.494997 -1.444860
0.823040 1.486221 -1.440835
0.830619 1.479320 -1.438403
0.838972 1.473984 -1.437315
0.848146 1.470234 -1.437599
0.853120 1.458592 -1.431084
0.860317 1.451257 -1.428275
0.870459 1.449369 -1.430191
0.878734 1.444049 -1.429144
0.887239 1.439157 -1.428479
0.894764 1.432555 -1.426329
0.902339 1.426089 -1.424300
0.909928 1.419693 -1.422337
0.918466 1.414935 -1.421823
0.925635 1.407899 -1.419308
0.929988 1.396300 -1.412743
0.938105 1.390964 -1.411733
0.945436 1.384381 -1.409620
0.950125 1.373667 -1.403814
0.528890 0.662964 -0.777028
0.531833 0.658552 -0.775014
0.533993 0.653047 -0.771998
0.536762 0.648477 -0.769832
0.540210 0.644907 -0.768585
0.545145 0.643427 -0.769272
0.549824 0.641562 -0.769618
0.553010 0.637639 -0.768065
0.556511 0.634162 -0.766930
0.560319 0.631105 -0.766194
0.563886 0.627732 -0.765168
0.567670 0.624649 -0.764421
0.572022 0.622293 -0.764370
0.575224 0.618465 -0.762935
0.578893 0.615236 -0.762074
0.581504 0.610700 -0.759971
0.586044 0.608555 -0.760160
0.590357 0.606111 -0.760076
0.594136 0.603010 -0.759372
0.597660 0.599606 -0.758382
0.604433 0.599997 -0.761091
0.609109 0.597884 -0.761388
0.613736 0.595687 -0.761619
0.616863 0.591774 -0.760177
0.621370 0.589412 -0.760269
0.626582 0.587804 -0.761123
0.631409 0.585738 -0.761539
0.634494 0.581769 -0.760069
0.637785 0.578035 -0.758835
0.641704 0.574971 -0.758277
0.647200 0.573542 -0.759378
0.651798 0.571150 -0.759518
0.657402 0.569762 -0.760693
0.661269 0.566590 -0.760056
0.663686 0.561982 -0.757942
0.667911 0.559184 -0.757685
0.672428 0.556667 -0.757719
0.675752 0.552999 -0.756555
0.681318 0.551479 -0.757626
0.685959 0.549067 -0.757765
0.690179 0.546263 -0.757486
0.693428 0.542579 -0.756264
0.699008 0.541042 -0.757304
0.705190 0.540032 -0.758902
0.710232 0.537993 -0.759392
0.715434 0.536102 -0.760026
0.719407 0.533154 -0.759496
0.723924 0.530708 -0.759481
0.727263 0.527292 -0.758376
0.732034 0.525132 -0.758606
0.736987 0.523157 -0.759002
0.740554 0.520075 -0.758138
0.744615 0.517456 -0.757736
0.750349 0.516238 -0.758845
0.755896 0.514903 -0.759779
0.759434 0.512021 -0.758933
0.764142 0.510127 -0.759135
0.770923 0.509891 -0.761156
0.776744 0.508950 -0.762329
0.779619 0.505821 -0.760958
0.783031 0.503187 -0.760077
0.790162 0.503404 -0.762391
0.796811 0.503300 -0.764283
0.801220 0.501603 -0.764281
0.807200 0.501116 -0.765611
0.813080 0.500612 -0.766859
0.815574 0.497753 -0.765304
0.812454 0.491028 -0.759163
-0.347801 1.401126 -1.080998
-0.349379 1.427709 -1.100732
-0.341762 1.421003 -1.098596
-0.338037 1.429402 -1.106397
-0.332906 1.433103 -1.111091
-0.327896 1.437887 -1.116495
-0.320892 1.435341 -1.117015
-0.247250 1.495757 -1.182706
-0.157344 1.512756 -1.214990
-0.153691 1.552826 -1.244679
0.006683 0.848526 -0.769069
0.012260 0.836744 -0.761730
0.017422 0.832696 -0.759896
0.022537 0.828606 -0.758028
0.027595 0.824909 -0.756439
0.032595 0.821963 -0.755388
0.037516 0.822279 -0.756683
0.042468 0.819097 -0.755465
0.047378 0.818504 -0.756116
0.052274 0.816143 -0.755495
0.075883 1.761166 -1.443448
0.086405 1.774988 -1.455814
0.097128 1.790400 -1.469394
0.107907 1.802000 -1.480250
0.118259 1.798501 -1.480120
0.128373 1.790283 -1.476544
0.138842 1.791171 -1.479643
0.148946 1.785032 -1.477602
0.159512 1.787629 -1.481994
0.170544 1.796766 -1.491235
0.180447 1.788469 -1.487638
0.189518 1.770486 -1.476868
0.200053 1.772521 -1.480915
0.210022 1.767767 -1.479941
0.220381 1.767584 -1.482376
0.230369 1.763567 -1.481971
0.239885 1.755382 -1.478458
0.250370 1.756587 -1.481974
0.263211 1.777657 -1.500417
0.271939 1.763127 -1.492178
0.279226 1.738556 -1.476353
0.289802 1.740414 -1.480421
0.229251 1.183760 -1.064002
0.236127 1.181871 -1.064446
0.243875 1.185544 -1.069131
0.248897 1.172190 -1.060859
0.255936 1.171562 -1.062281
0.262719 1.169416 -1.062553
0.269185 1.165556 -1.061517
0.275306 1.159998 -1.059178
0.281577 1.155453 -1.057614
0.288585 1.154792 -1.059047
0.295270 1.152490 -1.059222
0.301714 1.149077 -1.058543
0.307973 1.144903 -1.057275
0.315088 1.144695 -1.059094
0.321448 1.141105 -1.058288
0.328178 1.139177 -1.058783
0.335692 1.140500 -1.061832
0.344062 1.145132 -1.067498
0.531894 1.689495 -1.510098
0.535608 1.664577 -1.493361
0.546056 1.663800 -1.495810
0.553748 1.653622 -1.490762
0.556139 1.626220 -1.471900
0.562453 1.612496 -1.463942
0.578377 1.629667 -1.480820
0.587280 1.624205 -1.479526
0.600349 1.631522 -1.488565
0.609532 1.626811 -1.487906
0.621822 1.631262 -1.494693
0.636128 1.641221 -1.506005
0.644105 1.632798 -1.502376
0.649117 1.616321 -1.492148
0.654743 1.601975 -1.483628
0.663645 1.596778 -1.482594
0.677069 1.603531 -1.491410
0.686522 1.599657 -1.491500
0.698445 1.602065 -1.496799
0.703710 1.587624 -1.488149
0.709190 1.574061 -1.480195
0.717970 1.568796 -1.479132
0.730594 1.572720 -1.485755
0.736810 1.561394 -1.479638
0.742231 1.548467 -1.472154
0.750324 1.541881 -1.469984
0.761257 1.541716 -1.473235
0.768056 1.532341 -1.468715
0.777834 1.529578 -1.469795
0.785583 1.522447 -1.467173
0.793303 1.515345 -1.464572
0.802057 1.510468 -1.463873
0.809639 1.503218 -1.461146
0.815864 1.493326 -1.456143
0.823591 1.486571 -1.453832
0.832880 1.482937 -1.454218
0.843181 1.481230 -1.456288
0.849217 1.471347 -1.451277
0.854967 1.461079 -1.445914
0.863012 1.455207 -1.444379
0.871123 1.449492 -1.442986
0.878917 1.443238 -1.441126
0.887368 1.438191 -1.440334
0.896192 1.433806 -1.440138
0.904438 1.428416 -1.439065
0.911450 1.420937 -1.436145
0.918252 1.413175 -1.432972
0.925130 1.405613 -1.429977
0.930931 1.396353 -1.425459
0.937793 1.388921 -1.422574
0.946264 1.384116 -1.422061
0.953900 1.377989 -1.420367
0.962636 1.373599 -1.420257
0.970749 1.368229 -1.419276
0.976906 1.359895 -1.415601
0.983003 1.351546 -1.411911
0.985178 1.337463 -1.402953
0.994186 1.333583 -1.403361
0.992593 1.314355 -1.389609
0.549094 0.647878 -0.779888
0.550511 0.641436 -0.775981
0.552277 0.635552 -0.772583
0.555471 0.631656 -0.771049
0.559701 0.629154 -0.770837
0.563751 0.626405 -0.770400
0.567911 0.623792 -0.770103
0.571516 0.620456 -0.769128
0.574935 0.616892 -0.767939
0.578033 0.612935 -0.766378
0.581499 0.609451 -0.765277
0.585229 0.606299 -0.764503
0.589855 0.604224 -0.764785
0.593765 0.601271 -0.764225
0.597753 0.598401 -0.763757
0.601557 0.595310 -0.763081
0.605806 0.592725 -0.762914
0.608549 0.588412 -0.761046
0.613345 0.586430 -0.761497
0.616784 0.582912 -0.760429
0.618547 0.577555 -0.757524
0.622557 0.574689 -0.757114
0.627605 0.572927 -0.757828
0.633546 0.572080 -0.759485
0.638112 0.569736 -0.759643
0.642585 0.567276 -0.759693
0.648206 0.565977 -0.760942
0.651235 0.562010 -0.759460
0.656195 0.559999 -0.759995
0.659553 0.556378 -0.758866
0.663467 0.553317 -0.758316
0.667347 0.550230 -0.757733
0.672363 0.548237 -0.758298
0.676871 0.545749 -0.758341
0.682442 0.544256 -0.759435
0.685839 0.540730 -0.758363
0.689444 0.537425 -0.757508
0.693324 0.534394 -0.756929
0.700640 0.534460 -0.759673
0.703558 0.530598 -0.758159
0.710417 0.530231 -0.760419
0.715973 0.528714 -0.761415
0.719174 0.525191 -0.760185
0.723065 0.522306 -0.759616
0.726988 0.519493 -0.759088
0.731794 0.517460 -0.759383
0.736180 0.515120 -0.759294
0.740785 0.513004 -0.759411
0.746703 0.511990 -0.760718
0.748856 0.508012 -0.758637
0.752980 0.505678 -0.758348
0.758394 0.504411 -0.759215
0.764087 0.503406 -0.760327
0.770185 0.502756 -0.761792
0.774524 0.500815 -0.761719
0.778914 0.498983 -0.761705
0.783448 0.497326 -0.761827
0.790998 0.497958 -0.764541
0.795800 0.496616 -0.764902
0.798035 0.493485 -0.763107
0.803363 0.492671 -0.763946
0.808315 0.491650 -0.764478
0.803845 0.484053 -0.757199
-0.363966 1.454407 -1.124941
-0.348300 1.417953 -1.103143
-0.345888 1.430451 -1.113763
-0.341192 1.435124 -1.119188
-0.334505 1.432738 -1.119889
-0.328500 1.433435 -1.122627
-0.327037 1.452750 -1.137839
-0.317112 1.438918 -1.130788
-0.296208 1.465732 -1.157654
-0.167940 1.508397 -1.220536
-0.141546 1.581040 -1.279021
-0.120562 1.556724 -1.265600
-0.085759 1.576067 -1.286820
0.010729 0.842901 -0.772224
0.015970 0.838208 -0.769911
0.021255 0.830432 -0.765366
0.026436 0.823276 -0.761256
0.031457 0.819787 -0.759795
0.036427 0.817079 -0.758901
0.041355 0.815427 -0.758774
0.046263 0.814197 -0.758959
0.051149 0.809412 -0.756554
0.055968 0.803051 -0.752992
0.060722 0.797149 -0.749758
0.065405 0.791039 -0.746364
0.116779 1.817580 -1.507051
0.126922 1.806398 -1.501268
0.137144 1.799463 -1.498620
0.147129 1.789430 -1.493674
0.157148 1.781770 -1.490484
0.167279 1.777089 -1.489510
0.178102 1.782874 -1.496350
0.188091 1.776693 -1.494284
0.199018 1.782704 -1.501348
0.208610 1.772531 -1.496309
0.217413 1.755004 -1.485733
0.227031 1.747606 -1.482754
0.236619 1.740595 -1.480066
0.248760 1.757281 -1.495291
0.260171 1.765896 -1.504472
0.269018 1.752525 -1.497013
0.277113 1.734330 -1.485866
0.284896 1.715238 -1.474002
0.225253 1.163241 -1.057126
0.232096 1.161771 -1.057863
0.239713 1.165242 -1.062403
0.246455 1.162988 -1.062562
0.252810 1.158496 -1.061002
0.259544 1.156374 -1.061273
0.266005 1.152785 -1.060415
0.272889 1.151588 -1.061415
0.279423 1.148552 -1.060995
0.285656 1.144078 -1.059460
0.292198 1.141278 -1.059230
0.298943 1.139511 -1.059813
0.305645 1.137540 -1.060245
0.312419 1.135905 -1.060947
0.318914 1.133038 -1.060689
0.325888 1.132264 -1.062086
0.332956 1.131830 -1.063763
0.338984 1.127098 -1.062047
0.343490 1.116474 -1.055648
0.348614 1.108651 -1.051455
0.356703 1.112289 -1.056395
0.365005 1.116454 -1.061782
0.372972 1.119130 -1.066006
0.555403 1.591556 -1.459585
0.567467 1.596817 -1.466913
0.593351 1.644743 -1.509025
0.594373 1.614821 -1.487799
0.597978 1.593643 -1.473636
0.612177 1.604238 -1.485469
0.629063 1.622049 -1.503296
0.638308 1.617468 -1.502768
0.646108 1.608912 -1.498962
0.653477 1.599357 -1.494319
0.660325 1.588614 -1.488676
0.671654 1.589912 -1.493031
0.684702 1.595485 -1.500980
0.694655 1.592873 -1.502134
0.698441 1.574803 -1.490351
0.701457 1.555311 -1.477324
0.713619 1.558448 -1.483297
0.726087 1.562090 -1.489735
0.733919 1.554636 -1.486824
0.739380 1.541829 -1.479367
0.749083 1.538920 -1.480301
0.763228 1.545893 -1.489675
0.776435 1.550466 -1.497057
0.779152 1.532065 -1.484796
0.784211 1.519086 -1.477142
0.790407 1.508756 -1.471742
0.799820 1.505267 -1.472234
0.806214 1.495598 -1.467388
0.815915 1.492730 -1.468433
0.821875 1.482411 -1.463010
0.832626 1.481616 -1.465884
0.841884 1.477848 -1.466184
0.849759 1.471434 -1.464176
0.854905 1.459964 -1.457721
0.862859 1.453870 -1.455989
0.871200 1.448522 -1.454922
0.879342 1.442837 -1.453564
0.886971 1.436269 -1.451428
0.895688 1.431653 -1.451038
0.904741 1.427613 -1.451177
0.912371 1.421130 -1.449139
0.918788 1.412650 -1.445310
0.924851 1.403676 -1.441029
0.931448 1.395680 -1.437627
0.938539 1.388559 -1.435017
0.945655 1.381529 -1.432493
0.954124 1.376680 -1.431964
0.961286 1.369789 -1.429582
0.969650 1.364785 -1.428939
0.976784 1.357909 -1.426587
0.983463 1.350391 -1.423647
0.990443 1.343369 -1.421171
0.998190 1.337505 -1.419778
1.006140 1.331944 -1.418681
1.013576 1.325648 -1.416913
1.017306 1.314154 -1.410272
1.020365 1.301869 -1.402866
0.571466 0.619187 -0.774459
0.574554 0.615186 -0.772847
0.577887 0.611511 -0.771553
0.582166 0.609015 -0.771414
0.586712 0.606829 -0.771591
0.590115 0.603241 -0.770406
0.594573 0.600918 -0.770474
0.598923 0.598446 -0.770408
0.602348 0.594881 -0.769270
0.605968 0.591547 -0.768367
0.608810 0.587330 -0.766588
0.612033 0.583564 -0.765260
0.615215 0.579763 -0.763900
0.618568 0.576163 -0.762744
0.622097 0.572762 -0.761794
0.626743 0.570560 -0.762072
0.631101 0.568032 -0.762028
0.633983 0.563944 -0.760388
0.638000 0.561051 -0.759978
0.641991 0.558128 -0.759541
0.646434 0.555658 -0.759579
0.649734 0.552035 -0.758415
0.653506 0.548895 -0.757753
0.658318 0.546777 -0.758165
0.662274 0.543818 -0.757690
0.667662 0.542233 -0.758670
0.670621 0.538335 -0.757183
0.675346 0.536118 -0.757481
0.681663 0.535367 -0.759352
0.685248 0.532094 -0.758497
0.689083 0.529074 -0.757895
0.693106 0.526248 -0.757483
0.701903 0.527660 -0.761691
0.703294 0.522547 -0.758729
0.709239 0.521448 -0.760150
0.714076 0.519403 -0.760503
0.718751 0.517247 -0.760701
0.723341 0.515051 -0.760818
0.727410 0.512463 -0.760454
0.731335 0.509807 -0.759966
0.735953 0.507768 -0.760126
0.739960 0.505287 -0.759733
0.743713 0.502665 -0.759123
0.746642 0.499462 -0.757788
0.752646 0.498730 -0.759226
0.759149 0.498420 -0.761100
0.764752 0.497457 -0.762168
0.770291 0.496493 -0.763178
0.773048 0.493500 -0.761763
0.775005 0.490005 -0.759685
0.779872 0.488749 -0.760153
0.783972 0.486998 -0.759973
0.789789 0.486560 -0.761272
0.797541 0.487560 -0.764211
0.803545 0.487349 -0.765661
0.810828 0.488089 -0.768182
-0.354143 1.413299 -1.106504
-0.349806 1.417857 -1.111918
-0.347491 1.430520 -1.122766
-0.343612 1.438110 -1.130224
-0.336572 1.434270 -1.129979
-0.327161 1.421538 -1.123692
-0.324004 1.433675 -1.134185
-0.324586 1.461817 -1.155557
-0.117367 1.589714 -1.301971
0.014143 0.852513 -0.786449
0.019457 0.847092 -0.783592
0.024925 0.833919 -0.775064
0.030169 0.824029 -0.768914
0.035217 0.819176 -0.766439
0.040208 0.814465 -0.764065
0.045151 0.808559 -0.760806
0.050027 0.803547 -0.758200
0.054851 0.799408 -0.756234
0.059661 0.797942 -0.756241
0.064456 0.796534 -0.756297
0.069202 0.793658 -0.755267
0.073951 0.791977 -0.755127
0.078673 0.790034 -0.754796
0.136030 1.821376 -1.527988
0.145926 1.806347 -1.519276
0.164712 1.768183 -1.495697
0.176032 1.781484 -1.508244
0.186849 1.785897 -1.514141
0.197514 1.787664 -1.518072
0.207570 1.782023 -1.516418
0.214956 1.747969 -1.493212
0.224560 1.740423 -1.490077
0.235708 1.748471 -1.498817
0.245142 1.739866 -1.494894
0.256598 1.749523 -1.504927
0.265843 1.739852 -1.500203
0.273455 1.718046 -1.486157
0.215945 1.154438 -1.057213
0.222523 1.151372 -1.056697
0.229345 1.150068 -1.057549
0.236189 1.148909 -1.058522
0.243436 1.150216 -1.061421
0.250381 1.149539 -1.062795
0.256509 1.144105 -1.060469
0.263183 1.141967 -1.060717
0.270306 1.142288 -1.062897
0.277058 1.140557 -1.063482
0.283047 1.134965 -1.061038
0.289577 1.132262 -1.060867
0.296493 1.131462 -1.062204
0.303169 1.129494 -1.062629
0.309674 1.126764 -1.062456
0.316401 1.125059 -1.063104
0.322960 1.122628 -1.063181
0.329303 1.119325 -1.062568
0.334781 1.112575 -1.059200
0.341075 1.109291 -1.058602
0.347542 1.106746 -1.058600
0.354398 1.105691 -1.059805
0.362189 1.108051 -1.063776
0.368882 1.106243 -1.064400
0.375169 1.102991 -1.063860
0.380965 1.098090 -1.061983
0.386617 1.092816 -1.059799
0.393468 1.091645 -1.060961
0.401748 1.095065 -1.065889
0.410357 1.099303 -1.071517
0.598479 1.565274 -1.466038
0.616791 1.587848 -1.487917
0.633968 1.606249 -1.506438
0.642236 1.599102 -1.503756
0.644352 1.575300 -1.487151
0.663173 1.596975 -1.508572
0.670304 1.586991 -1.503519
0.677581 1.577597 -1.498948
0.687113 1.574134 -1.499367
0.690183 1.554500 -1.486120
0.695748 1.541528 -1.478465
0.702819 1.532500 -1.474134
0.717304 1.541278 -1.484966
0.728959 1.543027 -1.489857
0.739307 1.541585 -1.492049
0.747428 1.535012 -1.489858
0.761194 1.541119 -1.498580
0.776488 1.550274 -1.509989
0.777866 1.528902 -1.495053
0.784116 1.518435 -1.489511
0.789429 1.506187 -1.482404
0.795562 1.495873 -1.476956
0.800035 1.482352 -1.468689
0.808146 1.476409 -1.467032
0.818408 1.474770 -1.469164
0.827052 1.469898 -1.468470
0.835989 1.465604 -1.468296
0.844380 1.460268 -1.467211
0.851679 1.452913 -1.464340
0.859503 1.446604 -1.462400
0.870652 1.446393 -1.465913
0.878426 1.440005 -1.463926
0.885901 1.433133 -1.461508
0.894281 1.427899 -1.460567
0.903913 1.424835 -1.461599
0.911382 1.418045 -1.459277
0.918132 1.410097 -1.455907
0.924344 1.401338 -1.451794
0.931056 1.393492 -1.448511
0.938931 1.387596 -1.447015
0.947946 1.383536 -1.447217
0.952161 1.371900 -1.440451
0.960632 1.367036 -1.439930
0.969072 1.362112 -1.439372
0.977372 1.356967 -1.438625
0.984836 1.350568 -1.436723
0.990951 1.342201 -1.432987
0.998044 1.335329 -1.430655
1.006307 1.330177 -1.429952
1.013624 1.323666 -1.427984
1.019480 1.315123 -1.424098
1.026915 1.308842 -1.422364
1.034882 1.303301 -1.421350
1.041457 1.295868 -1.418541
1.047879 1.288267 -1.415577
1.054623 1.281130 -1.413068
1.058914 1.270818 -1.407492
1.062088 1.259166 -1.400603
1.070117 1.253838 -1.399858
0.599190 0.605068 -0.781267
0.600216 0.598612 -0.777248
0.602949 0.594211 -0.775274
0.605755 0.589922 -0.773412
0.608370 0.585438 -0.771352
0.611461 0.581517 -0.769860
0.614924 0.578023 -0.768805
0.618652 0.574823 -0.768054
0.623278 0.572596 -0.768308
0.627924 0.570367 -0.768573
0.630946 0.566400 -0.767051
0.633595 0.562064 -0.765140
0.636807 0.558336 -0.763857
0.641551 0.556188 -0.764226
0.645722 0.553441 -0.763974
0.648771 0.549573 -0.762538
0.651935 0.545841 -0.761237
0.655647 0.542665 -0.760518
0.660102 0.540217 -0.760571
0.663849 0.537091 -0.759892
0.667666 0.534046 -0.759290
0.671222 0.530776 -0.758428
0.674005 0.526817 -0.756800
0.680193 0.526000 -0.758580
0.685935 0.524757 -0.759892
0.689992 0.522005 -0.759530
0.694227 0.519436 -0.759345
0.698918 0.517290 -0.759603
0.703667 0.515216 -0.759914
0.709118 0.513762 -0.760892
0.714365 0.512153 -0.761666
0.718941 0.510006 -0.761799
0.722507 0.507066 -0.760989
0.727379 0.505251 -0.761409
0.730397 0.501979 -0.760115
0.734306 0.499493 -0.759664
0.738434 0.497242 -0.759425
0.743636 0.495893 -0.760171
0.747053 0.493206 -0.759309
0.752142 0.491879 -0.759964
0.759500 0.492330 -0.762642
0.765661 0.491902 -0.764239
0.769386 0.489698 -0.763690
0.771562 0.486424 -0.761806
0.773448 0.483036 -0.759706
0.777650 0.481432 -0.759647
0.785229 0.482332 -0.762501
0.793514 0.483765 -0.765941
0.798952 0.483204 -0.766942
0.799964 0.479590 -0.764212
-0.353485 1.405642 -1.110126
-0.350948 1.416519 -1.119866
-0.349248 1.431255 -1.132236
-0.342122 1.426447 -1.131371
-0.337427 1.431252 -1.137009
-0.331804 1.433079 -1.140610
-0.326046 1.434912 -1.144199
-0.322529 1.446305 -1.154317
-0.268264 1.526549 -1.232272
-0.204776 1.444639 -1.186728
-0.190974 1.513565 -1.241342
-0.118939 1.579726 -1.305969
-0.094462 1.515132 -1.263025
0.017929 0.854220 -0.795073
0.023290 0.847244 -0.791042
0.028617 0.838352 -0.785584
0.038939 0.822579 -0.776114
0.043946 0.817655 -0.773562
0.048899 0.808316 -0.767719
0.053759 0.801546 -0.763776
0.058567 0.797123 -0.761576
0.063331 0.793058 -0.759640
0.068083 0.790493 -0.758825
0.072802 0.787738 -0.757871
0.077514 0.785676 -0.757438
0.082242 0.784535 -0.757703
0.086808 0.780078 -0.755471
0.091564 0.780284 -0.756761
0.096287 0.779799 -0.757537
0.184180 1.776435 -1.520011
0.200174 1.717615 -1.480269
0.212415 1.740139 -1.500076
0.222907 1.741795 -1.503956
0.232888 1.738152 -1.503788
0.243806 1.743394 -1.510473
0.249875 1.705544 -1.483938
0.259989 1.704874 -1.486059
0.206793 1.146254 -1.057729
0.213343 1.143124 -1.057134
0.219789 1.139426 -1.056100
0.226552 1.138046 -1.056879
0.233634 1.138726 -1.059281
0.240561 1.138295 -1.060827
0.247578 1.138339 -1.062759
0.253968 1.134651 -1.061767
0.260601 1.132470 -1.061966
0.267453 1.131520 -1.063146
0.274308 1.130540 -1.064312
0.280491 1.126115 -1.062756
0.286655 1.121756 -1.061250
0.293021 1.118522 -1.060642
0.299794 1.117262 -1.061615
0.306473 1.115556 -1.062240
0.313522 1.115472 -1.064175
0.320210 1.113748 -1.064805
0.326044 1.108448 -1.062563
0.331990 1.103775 -1.060822
0.338391 1.101042 -1.060650
0.345340 1.100476 -1.062241
0.352370 1.100148 -1.064038
0.359082 1.098567 -1.064828
0.365322 1.095256 -1.064215
0.371669 1.092378 -1.063958
0.378288 1.090476 -1.064507
0.384461 1.087053 -1.063813
0.391454 1.086400 -1.065404
0.398870 1.087058 -1.068091
0.404447 1.081750 -1.065858
0.409232 1.074092 -1.061670
0.415661 1.071672 -1.061824
0.424051 1.075132 -1.066887
0.430605 1.072977 -1.067287
0.437872 1.072867 -1.069408
0.668381 1.554318 -1.492150
0.678075 1.551577 -1.493150
0.684847 1.541495 -1.487895
0.687177 1.520699 -1.473453
0.693549 1.510240 -1.467820
0.703195 1.507788 -1.469056
0.720781 1.523878 -1.486301
0.737474 1.537277 -1.501317
0.746818 1.533464 -1.501499
0.753562 1.523842 -1.496645
0.765402 1.525590 -1.501683
0.776535 1.525630 -1.505267
0.781920 1.513291 -1.498039
0.787813 1.502263 -1.491937
0.795053 1.494223 -1.488445
0.796136 1.473747 -1.473969
0.799592 1.458508 -1.464064
0.808696 1.454761 -1.464318
0.822353 1.459879 -1.472476
0.828527 1.450337 -1.467610
0.835473 1.442405 -1.464172
0.843987 1.437500 -1.463445
0.855389 1.437929 -1.467528
0.867771 1.440001 -1.473132
0.877751 1.437584 -1.474721
0.882402 1.425678 -1.467725
0.892303 1.423127 -1.469217
0.902674 1.421325 -1.471419
0.910276 1.414737 -1.469271
0.916550 1.405967 -1.465125
0.922722 1.397127 -1.460909
0.930665 1.391279 -1.459448
0.939738 1.387271 -1.459702
0.948399 1.382581 -1.459343
0.956002 1.376215 -1.457441
0.960254 1.364682 -1.450719
0.967817 1.358375 -1.448876
0.975475 1.352238 -1.447202
0.983457 1.346600 -1.446011
0.990053 1.338925 -1.442907
0.997686 1.332814 -1.441290
1.007121 1.329306 -1.442165
1.014534 1.322874 -1.440277
1.021506 1.315842 -1.437825
1.029771 1.310633 -1.437135
1.038822 1.306484 -1.437489
1.043310 1.296125 -1.431857
1.049312 1.287894 -1.428281
1.056037 1.280672 -1.425691
1.062864 1.273611 -1.423266
1.070522 1.267645 -1.421926
1.077692 1.261054 -1.419989
1.086608 1.256669 -1.420245
1.094119 1.250495 -1.418756
1.101943 1.244703 -1.417665
1.107288 1.235892 -1.413576
1.113173 1.227787 -1.410192
1.103182 1.200911 -1.387913
1.121974 1.193468 -1.389904
1.137240 1.196370 -1.397696
0.623772 0.571669 -0.774095
0.628007 0.568982 -0.773894
0.630984 0.564960 -0.772303
0.635135 0.562182 -0.772015
0.637759 0.557825 -0.770065
0.641406 0.554539 -0.769241
0.646057 0.552272 -0.769498
0.650395 0.549679 -0.769412
0.651562 0.543965 -0.765977
0.656054 0.541551 -0.766069
0.659425 0.538055 -0.764987
0.663047 0.534821 -0.764176
0.666796 0.531726 -0.763502
0.670833 0.528917 -0.763127
0.675102 0.526336 -0.762987
0.679993 0.524334 -0.763471
0.683983 0.521528 -0.763047
0.687801 0.518596 -0.762457
0.692118 0.516135 -0.762365
0.694924 0.512388 -0.760799
0.698241 0.509140 -0.759750
0.702028 0.506341 -0.759169
0.707018 0.504599 -0.759748
0.712013 0.502889 -0.760327
0.718641 0.502553 -0.762444
0.722740 0.500167 -0.762168
0.725720 0.496933 -0.760857
0.728866 0.493905 -0.759724
0.734057 0.492566 -0.760494
0.739741 0.491656 -0.761713
0.742828 0.488776 -0.760567
0.746141 0.486149 -0.759650
0.752226 0.485705 -0.761241
0.759286 0.486033 -0.763694
0.765202 0.485538 -0.765116
0.768150 0.482897 -0.763919
0.770491 0.479898 -0.762220
0.774359 0.478102 -0.761884
0.781993 0.479087 -0.764825
0.786651 0.477978 -0.765187
0.789910 0.475944 -0.764365
0.795737 0.475792 -0.765752
-0.354040 1.422398 -1.132729
-0.345238 1.410768 -1.127230
-0.340858 1.415826 -1.133102
-0.338276 1.428334 -1.144086
-0.332007 1.427448 -1.145871
-0.327283 1.433080 -1.152127
-0.321416 1.434820 -1.155686
-0.304283 1.417622 -1.148384
0.021915 0.850371 -0.799656
0.026972 0.854153 -0.803602
0.032204 0.851100 -0.802457
0.037428 0.845920 -0.799720
0.042609 0.838747 -0.795483
0.052676 0.811730 -0.777447
0.057556 0.806460 -0.774597
0.062328 0.797976 -0.769316
0.067015 0.790028 -0.764426
0.071657 0.783790 -0.760820
0.076380 0.782159 -0.760701
0.080997 0.778223 -0.758835
0.085651 0.776089 -0.758340
0.090309 0.774463 -0.758236
0.094927 0.772408 -0.757808
0.099181 0.764724 -0.753072
0.103546 0.759968 -0.750571
0.107698 0.752971 -0.746342
0.112134 0.750565 -0.745638
0.196363 1.694431 -1.475101
0.209913 1.732846 -1.507340
0.223027 1.761946 -1.532497
0.235368 1.779975 -1.549170
0.239668 1.721152 -1.506164
0.246956 1.694582 -1.488128
0.195753 1.122451 -1.045985
0.203880 1.132205 -1.055433
0.211249 1.135488 -1.059842
0.217735 1.132211 -1.059117
0.224421 1.130438 -1.059580
0.231313 1.130044 -1.061141
0.237931 1.127868 -1.061305
0.244691 1.126601 -1.062198
0.251368 1.124847 -1.062712
0.258184 1.123888 -1.063870
0.264613 1.120798 -1.063338
0.271452 1.119958 -1.064609
0.277823 1.116683 -1.063941
0.283743 1.111281 -1.061568
0.290120 1.108287 -1.061129
0.297130 1.108326 -1.063140
0.303971 1.107495 -1.064464
0.310964 1.107288 -1.066303
0.317446 1.104797 -1.066304
0.323659 1.101215 -1.065423
0.329227 1.095083 -1.062465
0.335445 1.091748 -1.061786
0.342107 1.090203 -1.062575
0.349894 1.092913 -1.066866
0.356424 1.090744 -1.067167
0.362552 1.087121 -1.066279
0.368185 1.081812 -1.063999
0.374056 1.077473 -1.062518
0.381441 1.078360 -1.065373
0.388502 1.078048 -1.067250
0.394386 1.073827 -1.065882
0.399736 1.067989 -1.063162
0.406088 1.065424 -1.063178
0.413216 1.065245 -1.065202
0.420908 1.066673 -1.068594
0.427063 1.063440 -1.068077
0.432588 1.058417 -1.066050
0.439635 1.057808 -1.067760
0.446283 1.056023 -1.068486
0.451638 1.050683 -1.066194
0.458161 1.048579 -1.066660
0.465885 1.049626 -1.069831
0.477075 1.059524 -1.080616
0.683469 1.486012 -1.459539
0.695053 1.488485 -1.465024
0.707562 1.492922 -1.472255
0.730454 1.521011 -1.500181
0.740813 1.519676 -1.502510
0.745748 1.506155 -1.494170
0.757825 1.508615 -1.499856
0.765920 1.502262 -1.497811
0.776695 1.501684 -1.500875
0.783983 1.493681 -1.497383
0.793173 1.489722 -1.497480
0.796438 1.473687 -1.486828
0.798831 1.456244 -1.474873
0.809797 1.456138 -1.478404
0.822928 1.460131 -1.485649
0.830343 1.452900 -1.482835
0.833732 1.438119 -1.473201
0.839252 1.427608 -1.467396
0.850149 1.427166 -1.470720
0.864638 1.433136 -1.479921
0.875600 1.432498 -1.483152
0.882565 1.424683 -1.479843
0.892276 1.421738 -1.481006
0.902138 1.419003 -1.482387
0.908309 1.409945 -1.477950
0.911744 1.396416 -1.469361
0.919044 1.389497 -1.466885
0.928316 1.385844 -1.467458
0.939432 1.385124 -1.470798
0.948477 1.380999 -1.470983
0.956246 1.374842 -1.469279
0.963552 1.367993 -1.466931
0.967558 1.356136 -1.459850
0.974324 1.348608 -1.456858
0.981949 1.342415 -1.455141
0.989895 1.336712 -1.453904
0.998748 1.332330 -1.453950
1.008315 1.328945 -1.454978
1.016385 1.323381 -1.453934
1.022105 1.314521 -1.449717
1.029875 1.308572 -1.448325
1.038015 1.303131 -1.447445
1.043525 1.294129 -1.443102
1.049815 1.286242 -1.439850
1.057167 1.279799 -1.438024
1.064924 1.273893 -1.436743
1.072731 1.268046 -1.435539
1.080332 1.261931 -1.434087
1.086816 1.254413 -1.431251
1.094178 1.248014 -1.429544
1.101051 1.241018 -1.427252
1.108372 1.234583 -1.425536
1.114199 1.226363 -1.422026
1.123312 1.222072 -1.422514
1.133126 1.218552 -1.423821
1.140057 1.211636 -1.421682
1.144504 1.201898 -1.416649
1.149473 1.192827 -1.412291
1.157900 1.187674 -1.411987
1.166287 1.182449 -1.411628
1.172792 1.175151 -1.409122
1.179523 1.168119 -1.406896
0.654669 0.559394 -0.783978
0.656851 0.554560 -0.781509
0.655604 0.546413 -0.775425
0.655114 0.539123 -0.770221
0.658919 0.536057 -0.769590
0.662627 0.532914 -0.768862
0.666526 0.529968 -0.768338
0.670409 0.527026 -0.767800
0.675488 0.525199 -0.768485
0.679006 0.521958 -0.767578
0.682929 0.519115 -0.767089
0.686729 0.516192 -0.766483
0.691238 0.513925 -0.766586
0.694619 0.510705 -0.765578
0.697332 0.506963 -0.763932
0.701594 0.504596 -0.763812
0.704179 0.500864 -0.762080
0.707900 0.498146 -0.761463
0.713504 0.497026 -0.762648
0.717323 0.494483 -0.762136
0.720428 0.491424 -0.760966
0.725230 0.489788 -0.761401
0.729510 0.487789 -0.761355
0.734575 0.486459 -0.762040
0.737694 0.483676 -0.760946
0.740113 0.480437 -0.759238
0.744841 0.479036 -0.759648
0.753751 0.480833 -0.763826
0.753102 0.475522 -0.759424
0.758210 0.474588 -0.760201
0.766905 0.476329 -0.764149
0.773356 0.476456 -0.766095
0.775512 0.473541 -0.764286
0.776700 0.470029 -0.761673
0.781306 0.469034 -0.762053
0.792635 0.472811 -0.768211
-0.354194 1.417665 -1.138379
-0.346949 1.411599 -1.136681
-0.341449 1.412315 -1.139631
-0.339935 1.428618 -1.153358
-0.333606 1.427347 -1.154918
-0.323576 1.412019 -1.146667
-0.325029 1.442356 -1.170197
-0.319598 1.446355 -1.175384
-0.128985 1.540095 -1.297374
0.020343 0.858851 -0.812386
0.025520 0.860352 -0.814659
0.030682 0.863392 -0.818104
0.036022 0.856761 -0.814258
0.041285 0.850380 -0.810592
0.046472 0.844485 -0.807286
0.051561 0.825660 -0.794152
0.056493 0.814096 -0.786502
0.061363 0.807587 -0.782683
0.066224 0.804300 -0.781316
0.071191 0.806636 -0.784249
0.075437 0.784971 -0.768808
0.080023 0.779163 -0.765488
0.084601 0.774681 -0.763181
0.089188 0.771405 -0.761800
0.093678 0.766970 -0.759524
0.098195 0.763774 -0.758203
0.102447 0.757074 -0.754168
0.107068 0.756526 -0.754898
0.111600 0.754852 -0.754759
0.116123 0.753253 -0.754683
0.120596 0.751221 -0.754275
0.124420 0.742547 -0.748677
0.128825 0.740585 -0.748320
0.133447 0.740798 -0.749674
0.191557 1.097437 -1.034828
0.200243 1.112521 -1.048538
0.208180 1.120685 -1.056826
0.215161 1.121335 -1.059186
0.222040 1.121150 -1.060898
0.228734 1.119673 -1.061594
0.235570 1.119102 -1.063023
0.241899 1.115410 -1.061966
0.248895 1.115767 -1.064161
0.255784 1.115401 -1.065789
0.262073 1.111688 -1.064735
0.268030 1.106362 -1.062382
0.274891 1.105897 -1.063956
0.281308 1.103157 -1.063700
0.287285 1.098364 -1.061782
0.294387 1.099011 -1.064290
0.301326 1.098784 -1.066103
0.307755 1.096220 -1.066018
0.314257 1.094010 -1.066230
0.320371 1.090193 -1.065130
0.326440 1.086285 -1.063956
0.332666 1.083108 -1.063386
0.338542 1.078626 -1.061741
0.346474 1.082084 -1.066672
0.353648 1.082475 -1.069085
0.359423 1.077678 -1.067197
0.364537 1.070656 -1.063452
0.369992 1.065032 -1.060865
0.376818 1.064220 -1.062303
0.384322 1.065607 -1.065600
0.390400 1.062201 -1.064885
0.395700 1.056367 -1.062124
0.402858 1.056483 -1.064387
0.410312 1.057410 -1.067355
0.417393 1.057096 -1.069288
0.422878 1.052003 -1.067168
0.429403 1.050017 -1.067696
0.435793 1.047640 -1.067897
0.441489 1.043328 -1.066447
0.447773 1.040691 -1.066437
0.455112 1.040894 -1.068880
0.461024 1.037241 -1.068011
0.466301 1.031983 -1.065755
0.472242 1.028511 -1.065044
0.478896 1.026855 -1.065918
0.486913 1.028519 -1.069699
0.493733 1.027149 -1.070853
0.498455 1.020744 -1.067606
0.507532 1.024655 -1.073417
0.770038 1.487019 -1.500893
0.778142 1.480871 -1.499009
0.784788 1.471768 -1.494476
0.792974 1.465944 -1.492883
0.802220 1.462290 -1.493252
0.811734 1.459146 -1.494099
0.823518 1.460391 -1.498945
0.830121 1.451523 -1.494634
0.832650 1.435065 -1.483391
0.836438 1.421292 -1.474556
0.844208 1.415107 -1.472648
0.858017 1.419927 -1.480868
0.871490 1.423884 -1.488355
0.882293 1.422893 -1.491324
0.893592 1.422663 -1.495034
0.901851 1.417084 -1.493806
0.905345 1.403444 -1.485067
0.906408 1.385966 -1.472702
0.911369 1.375252 -1.466633
0.922736 1.375126 -1.470516
0.936304 1.378410 -1.477663
0.945622 1.374730 -1.478277
0.954398 1.370161 -1.478070
0.959243 1.359494 -1.472073
0.966684 1.352926 -1.469979
0.972491 1.343925 -1.465560
0.981154 1.339264 -1.465312
0.988490 1.332633 -1.463184
0.998178 1.329443 -1.464398
1.006698 1.324517 -1.463959
1.014547 1.318622 -1.462597
1.021695 1.311751 -1.460296
1.028783 1.304824 -1.457950
1.036291 1.298496 -1.456204
1.042840 1.290885 -1.453206
1.050054 1.284201 -1.451132
1.058095 1.278620 -1.450168
1.066019 1.272876 -1.449062
1.073434 1.266470 -1.447312
1.080922 1.260161 -1.445676
1.088958 1.254543 -1.444752
1.095452 1.247001 -1.441901
1.101745 1.239244 -1.438838
1.108977 1.232656 -1.436973
1.118385 1.228674 -1.437789
1.123529 1.219604 -1.433409
1.132231 1.214746 -1.433370
1.139600 1.208319 -1.431729
1.145503 1.200222 -1.428366
1.151440 1.192206 -1.425086
1.159672 1.186782 -1.424519
1.165770 1.178993 -1.421481
1.174614 1.174221 -1.421628
1.180278 1.166003 -1.418141
1.187193 1.159161 -1.416107
1.191162 1.149248 -1.410789
1.204573 1.149213 -1.416045
1.207108 1.137902 -1.409199
1.213949 1.131080 -1.407163
