ply
format ascii 1.0
comment ---
element vertex 1699
property float x
property float y
property float z
element face 0
property list uchar uint vertex_indices
end_header
-0.335867 1.422401 -1.012425
-0.330074 1.425849 -1.016298
-0.325983 1.436604 -1.024561
-0.326761 1.467798 -1.045167
-0.300643 1.483229 -1.061632
-0.275713 1.476591 -1.062745
-0.278300 1.527139 -1.095397
-0.271184 1.532984 -1.100708
-0.256417 1.500882 -1.082687
-0.245206 1.485757 -1.075039
-0.233704 1.468494 -1.066029
-0.213588 1.546873 -1.121114
-0.207679 1.564809 -1.133940
-0.200706 1.577287 -1.143396
-0.191655 1.576874 -1.144827
-0.178691 1.549265 -1.129247
-0.170104 1.551229 -1.132134
-0.165291 1.581886 -1.153028
-0.156146 1.581131 -1.154245
-0.147758 1.586559 -1.159356
-0.137913 1.661850 -1.210318
-0.124454 1.623915 -1.188108
-0.115481 1.626911 -1.191763
0.030343 1.776173 -1.318330
0.070688 1.817063 -1.353638
0.145145 1.878347 -1.410092
0.204076 1.956824 -1.474789
0.214838 1.953277 -1.474968
0.226290 1.957881 -1.480640
0.238353 1.968343 -1.490290
0.249723 1.970425 -1.494323
0.260157 1.963134 -1.492031
0.271128 1.961300 -1.493438
0.281610 1.955220 -1.491970
0.291844 1.947486 -1.489377
0.301133 1.932785 -1.482025
0.311083 1.924159 -1.478803
0.321264 1.917753 -1.477095
0.329651 1.899155 -1.467017
0.339390 1.890872 -1.463998
0.350625 1.892717 -1.467953
0.362778 1.899991 -1.475678
0.373841 1.900033 -1.478436
0.381638 1.880877 -1.467898
0.391957 1.877011 -1.467945
0.402791 1.876041 -1.470013
0.412182 1.867324 -1.466691
0.422059 1.861459 -1.465352
0.431158 1.851890 -1.461419
0.440548 1.844118 -1.458735
0.450189 1.837800 -1.457066
0.459376 1.829578 -1.454053
0.468892 1.823103 -1.452266
0.476566 1.808781 -1.444920
0.486166 1.803211 -1.443757
0.493060 1.786545 -1.434704
0.501551 1.776991 -1.430683
0.511251 1.772528 -1.430284
0.522059 1.772403 -1.432991
0.530644 1.763748 -1.429598
0.539837 1.757583 -1.427983
0.549505 1.753262 -1.427693
0.559026 1.748469 -1.427065
0.567195 1.739060 -1.423099
0.575728 1.731138 -1.420197
0.585216 1.726572 -1.419725
0.596278 1.727178 -1.423020
0.607556 1.728318 -1.426724
0.348396 0.831733 -0.778200
0.353089 0.829331 -0.777893
0.356818 0.824204 -0.775572
0.360918 0.820235 -0.774100
0.364771 0.815659 -0.772173
0.368275 0.810238 -0.769610
0.371695 0.804715 -0.766961
0.375847 0.801229 -0.765826
0.380044 0.797915 -0.764818
0.383965 0.793950 -0.763318
0.388123 0.790641 -0.762308
0.392611 0.788187 -0.761941
0.397060 0.785659 -0.761519
0.402047 0.784422 -0.762077
0.406658 0.782290 -0.761960
0.410795 0.779074 -0.761020
0.415515 0.777216 -0.761115
0.420921 0.776883 -0.762382
0.426108 0.776021 -0.763252
0.432381 0.777475 -0.765913
0.438958 0.779477 -0.769013
0.442431 0.774839 -0.766995
0.446683 0.771886 -0.766278
0.450820 0.768724 -0.765399
0.456257 0.768210 -0.766583
0.460885 0.766042 -0.766485
0.464913 0.762702 -0.765472
0.470647 0.762685 -0.767069
0.475789 0.761484 -0.767746
0.480351 0.759165 -0.767549
0.484621 0.756306 -0.766928
0.487690 0.751264 -0.764578
0.492656 0.749720 -0.765002
0.496968 0.746988 -0.764488
0.504355 0.749677 -0.768312
0.504772 0.740131 -0.762352
0.514602 0.746904 -0.769485
0.517609 0.741895 -0.767166
0.520294 0.736411 -0.764457
0.523632 0.732080 -0.762675
0.526773 0.727473 -0.760665
0.529949 0.722971 -0.758738
0.532740 0.717906 -0.756347
0.538951 0.718269 -0.758398
0.544919 0.718182 -0.760100
0.548369 0.714175 -0.758589
0.552273 0.710885 -0.757670
0.556574 0.708201 -0.757257
0.560755 0.705338 -0.756702
0.565146 0.702782 -0.756409
0.569147 0.699656 -0.755647
0.573158 0.696548 -0.754906
0.578772 0.695704 -0.756075
0.584171 0.694510 -0.756965
0.588216 0.691410 -0.756259
0.593248 0.689653 -0.756700
0.599024 0.688865 -0.757981
0.604222 0.687254 -0.758577
0.609505 0.685718 -0.759253
0.615156 0.684621 -0.760324
0.624129 0.687737 -0.765047
0.629990 0.686757 -0.766270
0.634827 0.684438 -0.766352
0.640514 0.683146 -0.767341
0.645431 0.680862 -0.767484
0.650574 0.678823 -0.767857
0.655858 0.676918 -0.768364
0.659106 0.672564 -0.766725
0.662804 0.668752 -0.765570
0.660179 0.657621 -0.757913
0.664861 0.655027 -0.757833
0.670199 0.653152 -0.758411
0.675331 0.651006 -0.758764
0.677217 0.645233 -0.755861
0.681256 0.641864 -0.755126
0.685849 0.639087 -0.754938
0.690124 0.635951 -0.754433
0.693754 0.632121 -0.753303
0.696819 0.627705 -0.751635
0.699759 0.623178 -0.749864
0.702702 0.618676 -0.748113
0.706565 0.615128 -0.747244
0.711625 0.612781 -0.747498
0.713646 0.607404 -0.744921
0.713258 0.599718 -0.740155
0.715724 0.594894 -0.738060
0.720507 0.592326 -0.738090
0.725317 0.589775 -0.738138
0.729769 0.586884 -0.737860
0.733691 0.583508 -0.737109
0.738137 0.580631 -0.736827
0.741957 0.577200 -0.735998
0.746426 0.574379 -0.735743
0.748899 0.569810 -0.733765
0.751246 0.565193 -0.731705
0.755310 0.562132 -0.731140
0.759365 0.559102 -0.730577
0.762796 0.555586 -0.729499
0.766583 0.552428 -0.728739
0.767040 0.546562 -0.725230
0.765914 0.539512 -0.720467
0.765403 0.533109 -0.716279
0.773579 0.533839 -0.719233
0.783542 0.535995 -0.723610
0.785025 0.531431 -0.721121
0.786302 0.526819 -0.718513
0.788465 0.523012 -0.716657
0.789445 0.518402 -0.713906
0.805670 0.525503 -0.723180
0.862542 0.563131 -0.764104
0.868623 0.562220 -0.765142
0.874380 0.561137 -0.765940
-0.366906 1.435628 -1.021688
-0.353288 1.408869 -1.007492
-0.348556 1.414305 -1.012637
-0.342933 1.417069 -1.016162
-0.337573 1.421401 -1.020627
-0.335895 1.440536 -1.034071
-0.325766 1.427700 -1.028095
-0.324823 1.451559 -1.044435
-0.310155 1.450445 -1.047347
-0.306491 1.466109 -1.058716
-0.295327 1.450408 -1.050836
-0.283976 1.433615 -1.042229
-0.280993 1.490352 -1.080640
-0.275845 1.504025 -1.090821
-0.251070 1.462145 -1.068235
-0.245774 1.476453 -1.078781
-0.242013 1.499985 -1.095094
-0.229012 1.474853 -1.081066
-0.226095 1.505029 -1.101561
-0.223331 1.538220 -1.124000
-0.217582 1.555938 -1.136792
-0.192386 1.507940 -1.109944
-0.186647 1.527040 -1.123618
-0.159230 1.586101 -1.167688
-0.147408 1.563887 -1.155272
-0.136615 1.627828 -1.199442
-0.074463 1.668348 -1.238079
-0.056362 1.682519 -1.250987
-0.048165 1.706598 -1.268502
0.190926 1.953240 -1.482954
0.202416 1.959042 -1.489442
0.212979 1.952460 -1.487560
0.223598 1.947199 -1.486576
0.235511 1.956424 -1.495459
0.245814 1.947971 -1.492321
0.257555 1.954178 -1.499200
0.268742 1.954480 -1.502068
0.279342 1.949464 -1.501303
0.288598 1.933535 -1.493036
0.298239 1.921924 -1.487719
0.308221 1.913739 -1.484752
0.318272 1.906555 -1.482471
0.327983 1.897388 -1.478813
0.337826 1.889639 -1.476131
0.348786 1.889554 -1.478777
0.360764 1.895699 -1.485783
0.371650 1.894646 -1.487793
0.381528 1.887595 -1.485618
0.391802 1.883084 -1.485221
0.401611 1.876144 -1.483121
0.410966 1.867050 -1.479499
0.420003 1.856698 -1.474978
0.430874 1.855976 -1.477257
0.438328 1.838501 -1.467674
0.447676 1.830801 -1.464999
0.457864 1.827231 -1.465258
0.467398 1.820761 -1.463454
0.475674 1.808977 -1.457848
0.484222 1.798792 -1.453368
0.494138 1.794645 -1.453208
0.501311 1.779423 -1.445084
0.510577 1.773064 -1.443320
0.520524 1.769492 -1.443565
0.530348 1.765471 -1.443491
0.538310 1.754607 -1.438455
0.548050 1.750508 -1.438321
0.557628 1.745869 -1.437798
0.564838 1.733086 -1.431327
0.573251 1.724777 -1.428107
0.582883 1.720725 -1.428001
0.591997 1.715015 -1.426678
0.602420 1.713575 -1.428500
0.608363 1.698034 -1.419921
0.617305 1.692163 -1.418466
0.628058 1.691845 -1.421127
0.638284 1.689851 -1.422559
0.364554 0.815450 -0.778294
0.368964 0.812442 -0.777523
0.372852 0.808086 -0.775735
0.375195 0.799776 -0.770954
0.379464 0.796629 -0.770062
0.383504 0.792950 -0.768766
0.387748 0.789834 -0.767894
0.391810 0.786315 -0.766714
0.396478 0.784305 -0.766684
0.400829 0.781549 -0.766085
0.404390 0.776973 -0.764089
0.408166 0.772975 -0.762531
0.412528 0.770363 -0.762039
0.417236 0.768544 -0.762160
0.422115 0.767096 -0.762573
0.425115 0.761566 -0.759819
0.429089 0.758214 -0.758752
0.436508 0.762139 -0.763369
0.442090 0.762090 -0.764899
0.447010 0.760630 -0.765335
0.452505 0.760312 -0.766674
0.457155 0.758266 -0.766661
0.459826 0.752343 -0.763586
0.467039 0.755290 -0.767534
0.472838 0.755404 -0.769255
0.476486 0.751417 -0.767721
0.480576 0.748296 -0.766875
0.484962 0.745737 -0.766481
0.489025 0.742602 -0.765628
0.493820 0.740791 -0.765843
0.498006 0.737897 -0.765189
0.502682 0.735866 -0.765237
0.506900 0.733042 -0.764648
0.511206 0.730375 -0.764190
0.515734 0.728083 -0.764044
0.520292 0.725837 -0.763940
0.523676 0.721672 -0.762268
0.526049 0.715922 -0.759289
0.529834 0.712491 -0.758216
0.534717 0.710803 -0.758587
0.540644 0.710709 -0.760292
0.544500 0.707382 -0.759324
0.546682 0.701539 -0.756258
0.552280 0.700873 -0.757518
0.557535 0.699651 -0.758328
0.561659 0.696741 -0.757730
0.565362 0.693225 -0.756626
0.569204 0.689921 -0.755707
0.573978 0.687937 -0.755912
0.579416 0.686854 -0.756899
0.584053 0.684625 -0.756922
0.588204 0.681716 -0.756373
0.594247 0.681343 -0.758015
0.600641 0.681370 -0.760024
0.606286 0.680342 -0.761144
0.611880 0.679197 -0.762182
0.617444 0.677964 -0.763163
0.626572 0.681198 -0.768069
0.631886 0.679506 -0.768698
0.635299 0.675419 -0.767238
0.641088 0.674255 -0.768363
0.645009 0.670777 -0.767458
0.645201 0.662837 -0.762594
0.652834 0.663797 -0.765652
0.655389 0.658717 -0.763337
0.657126 0.652725 -0.760199
0.661421 0.649710 -0.759738
0.666728 0.647826 -0.760312
0.669717 0.643312 -0.758514
0.672970 0.639110 -0.757001
0.677060 0.635835 -0.756339
0.682208 0.633695 -0.756728
0.686936 0.631072 -0.756687
0.690391 0.627085 -0.755395
0.695388 0.624717 -0.755609
0.698099 0.619961 -0.753608
0.700962 0.615390 -0.751774
0.705858 0.612896 -0.751888
0.712824 0.612448 -0.753941
0.716531 0.608720 -0.752910
0.716358 0.601217 -0.748282
0.717593 0.595171 -0.745012
0.722538 0.592732 -0.745177
0.727095 0.589917 -0.744982
0.730922 0.586423 -0.744124
0.733962 0.582223 -0.742570
0.738546 0.579472 -0.742408
0.742456 0.576123 -0.741649
0.746665 0.573071 -0.741162
0.749853 0.569142 -0.739790
0.753042 0.565266 -0.738439
0.756774 0.561911 -0.737574
0.761915 0.559810 -0.737927
0.766109 0.556933 -0.737478
0.767021 0.551356 -0.734271
0.770875 0.548325 -0.733577
0.771405 0.542631 -0.730135
0.767677 0.533600 -0.723224
0.777649 0.535770 -0.727671
0.783998 0.535030 -0.729117
0.786457 0.531261 -0.727400
0.786442 0.525660 -0.723724
0.785549 0.519518 -0.719404
0.794836 0.521320 -0.723267
0.850744 0.553006 -0.760317
0.862982 0.556787 -0.766243
0.864733 0.552809 -0.763957
-0.356619 1.392712 -1.004440
-0.358024 1.419261 -1.022474
-0.350605 1.414910 -1.021732
-0.344149 1.414462 -1.023345
-0.342288 1.431780 -1.035808
-0.333780 1.424700 -1.033338
-0.327050 1.424776 -1.035227
-0.324144 1.440526 -1.046745
-0.333784 1.508137 -1.090272
-0.314012 1.488500 -1.081856
-0.281406 1.412581 -1.038279
-0.279269 1.471640 -1.078488
-0.271138 1.470588 -1.079552
-0.254301 1.466564 -1.080419
-0.251295 1.492517 -1.098395
-0.247056 1.513761 -1.113451
-0.239248 1.517264 -1.117353
-0.231538 1.521778 -1.121891
-0.226688 1.543230 -1.137145
-0.217825 1.542512 -1.138386
-0.183924 1.493093 -1.111957
-0.169867 1.579113 -1.171878
-0.148817 1.630996 -1.210387
-0.138538 1.622901 -1.206944
-0.125285 1.586315 -1.185101
-0.118726 1.611288 -1.202979
-0.104017 1.652716 -1.233387
-0.097044 1.681831 -1.254128
-0.059066 1.688515 -1.266018
-0.029441 1.671308 -1.260479
0.176400 1.928472 -1.476711
0.188576 1.946428 -1.491495
0.200045 1.952098 -1.497941
0.210681 1.946431 -1.496652
0.221326 1.941436 -1.495827
0.231951 1.936651 -1.495150
0.244510 1.952219 -1.508500
0.256255 1.957969 -1.515132
0.266254 1.946807 -1.510098
0.275650 1.931258 -1.502011
0.285803 1.923343 -1.499200
0.295527 1.912542 -1.494376
0.305257 1.902542 -1.490099
0.315331 1.895732 -1.488039
0.326057 1.893895 -1.489457
0.337219 1.894990 -1.492942
0.347028 1.886998 -1.490063
0.357134 1.881286 -1.488782
0.369254 1.888050 -1.496305
0.380686 1.890150 -1.500566
0.388228 1.869851 -1.488984
0.398257 1.864353 -1.487865
0.407397 1.854290 -1.483501
0.419092 1.857897 -1.488866
0.429109 1.852700 -1.487972
0.434841 1.826730 -1.472211
0.442883 1.813001 -1.465168
0.455085 1.819075 -1.472333
0.464456 1.811945 -1.470024
0.473527 1.803718 -1.466918
0.482605 1.795789 -1.464019
0.491958 1.789247 -1.462118
0.500734 1.780528 -1.458632
0.510258 1.775046 -1.457492
0.520478 1.772374 -1.458401
0.529087 1.763576 -1.454841
0.538606 1.758399 -1.453921
0.548509 1.754699 -1.454087
0.555717 1.741467 -1.447244
0.563504 1.730669 -1.442170
0.572283 1.723551 -1.439799
0.580336 1.714171 -1.435746
0.590001 1.710290 -1.435761
0.598993 1.704280 -1.434197
0.607047 1.695433 -1.430515
0.614799 1.685865 -1.426282
0.624741 1.683136 -1.427157
0.631992 1.672411 -1.422037
0.640634 1.665997 -1.420144
0.648662 1.657936 -1.417003
0.661861 1.664527 -1.424929
0.668724 1.653318 -1.419410
0.675650 1.642543 -1.414200
0.383021 0.791892 -0.774194
0.387527 0.789408 -0.773801
0.391786 0.786340 -0.772960
0.396341 0.784021 -0.772695
0.401134 0.782281 -0.772880
0.404449 0.777085 -0.770389
0.407981 0.772487 -0.768354
0.411117 0.767075 -0.765678
0.415556 0.764670 -0.765341
0.419651 0.761524 -0.764426
0.423396 0.757653 -0.762942
0.427793 0.755228 -0.762591
0.431875 0.752152 -0.761729
0.436366 0.749951 -0.761559
0.442070 0.750232 -0.763359
0.446309 0.747496 -0.762776
0.450526 0.744737 -0.762175
0.455095 0.742683 -0.762139
0.461005 0.743213 -0.764177
0.466339 0.742572 -0.765290
0.469496 0.737804 -0.763092
0.475268 0.737946 -0.764851
0.481651 0.739142 -0.767477
0.486449 0.737386 -0.767728
0.490390 0.734091 -0.766733
0.495230 0.732401 -0.767048
0.499908 0.730411 -0.767127
0.503638 0.726788 -0.765873
0.506782 0.722206 -0.763830
0.511572 0.720421 -0.764089
0.516375 0.718642 -0.764362
0.519811 0.714621 -0.762785
0.522385 0.709252 -0.760086
0.525705 0.705134 -0.758423
0.530747 0.703752 -0.759046
0.536325 0.703169 -0.760351
0.538806 0.697801 -0.757648
0.543526 0.695879 -0.757844
0.549061 0.695151 -0.759062
0.553812 0.693220 -0.759275
0.557999 0.690446 -0.758781
0.561608 0.686837 -0.757583
0.565386 0.683487 -0.756608
0.569797 0.681036 -0.756410
0.574807 0.679404 -0.756928
0.579354 0.677105 -0.756883
0.584376 0.675432 -0.757392
0.589517 0.673887 -0.758026
0.596153 0.674284 -0.760371
0.602758 0.674560 -0.762637
0.608885 0.674135 -0.764315
0.613926 0.672256 -0.764736
0.618280 0.669474 -0.764374
0.625172 0.669853 -0.766827
0.632557 0.670753 -0.769772
0.634771 0.665238 -0.767026
0.637923 0.660902 -0.765331
0.641480 0.657069 -0.764090
0.647556 0.656215 -0.765541
0.651005 0.652236 -0.764188
0.652851 0.646416 -0.761168
0.657177 0.643476 -0.760765
0.661380 0.640382 -0.760232
0.664587 0.636167 -0.758679
0.668745 0.633014 -0.758108
0.672455 0.629362 -0.757084
0.678132 0.627834 -0.758037
0.681531 0.623830 -0.756702
0.686216 0.621192 -0.756647
0.692085 0.619768 -0.757742
0.696348 0.616643 -0.757253
0.698229 0.611085 -0.754466
0.702913 0.608398 -0.754394
0.709407 0.607499 -0.756035
0.714922 0.605585 -0.756721
0.717208 0.600498 -0.754365
0.718464 0.594464 -0.751079
0.722188 0.590850 -0.750112
0.726390 0.587703 -0.749592
0.731564 0.585472 -0.749958
0.734717 0.581374 -0.748488
0.739888 0.579153 -0.748847
0.745137 0.577002 -0.749268
0.749036 0.573654 -0.748486
0.751310 0.568909 -0.746287
0.754850 0.565337 -0.745223
0.758230 0.561676 -0.744037
0.764643 0.560659 -0.745484
0.767276 0.556455 -0.743681
0.769166 0.551710 -0.741275
0.770605 0.546685 -0.738527
0.775078 0.544245 -0.738369
0.778295 0.540845 -0.737177
0.780140 0.536425 -0.734873
0.785713 0.535070 -0.735683
0.786670 0.530135 -0.732716
0.785058 0.523323 -0.727711
0.786564 0.519075 -0.725304
0.800417 0.524375 -0.732869
0.817897 0.532364 -0.743262
0.839621 0.543435 -0.756922
0.856493 0.550752 -0.766612
0.869514 0.555155 -0.773188
-0.360552 1.400316 -1.017658
-0.358319 1.413731 -1.027828
-0.352835 1.416214 -1.031291
-0.347669 1.420416 -1.035802
-0.343586 1.429289 -1.043192
-0.337593 1.431661 -1.046559
-0.331912 1.435800 -1.051008
-0.327157 1.444230 -1.058115
-0.334019 1.500215 -1.094847
-0.274018 1.402959 -1.042975
-0.281834 1.472800 -1.088668
-0.268657 1.485727 -1.100317
-0.255023 1.499207 -1.112309
-0.247001 1.500734 -1.114989
-0.237847 1.496580 -1.114043
-0.232679 1.514439 -1.127117
-0.233154 1.565740 -1.161590
-0.223136 1.558980 -1.158999
-0.194391 1.545492 -1.155466
-0.178933 1.561463 -1.169152
-0.154780 1.583707 -1.188689
-0.127393 1.583419 -1.193699
-0.118180 1.582471 -1.194822
-0.052308 1.697431 -1.285060
0.114499 1.777047 -1.374127
0.162683 1.913602 -1.477063
0.174928 1.935502 -1.494637
0.185745 1.932734 -1.495286
0.197106 1.937595 -1.501212
0.207891 1.934335 -1.501550
0.217271 1.914791 -1.490613
0.230165 1.936346 -1.508177
0.241251 1.936402 -1.510860
0.249730 1.910617 -1.495549
0.260251 1.906407 -1.495253
0.271524 1.909117 -1.499804
0.282446 1.908428 -1.501997
0.292511 1.900734 -1.499286
0.301474 1.885042 -1.490940
0.310443 1.870531 -1.483401
0.322161 1.876519 -1.490323
0.333868 1.881801 -1.496780
0.343882 1.875417 -1.494992
0.353940 1.869605 -1.493609
0.365080 1.870643 -1.497106
0.375173 1.865273 -1.496050
0.385038 1.858787 -1.494197
0.393914 1.847095 -1.488611
0.405384 1.849848 -1.493381
0.419066 1.863762 -1.506209
0.426954 1.847506 -1.497338
0.433888 1.827350 -1.485618
0.442166 1.814557 -1.479186
0.453255 1.815319 -1.482569
0.462135 1.805933 -1.478591
0.473235 1.806626 -1.481946
0.478240 1.781055 -1.466141
0.488064 1.776712 -1.465809
0.499901 1.780631 -1.471539
0.508810 1.772582 -1.468503
0.518334 1.767148 -1.467384
0.527750 1.761411 -1.466042
0.536341 1.752729 -1.462520
0.547214 1.752565 -1.465303
0.554458 1.739390 -1.458435
0.562755 1.730296 -1.454580
0.572291 1.725654 -1.454036
0.580942 1.718122 -1.451333
0.588048 1.705715 -1.444967
0.596316 1.697383 -1.441640
0.604986 1.690505 -1.439397
0.614479 1.686292 -1.439160
0.622414 1.677408 -1.435394
0.630718 1.669819 -1.432598
0.638124 1.659772 -1.427925
0.647801 1.656443 -1.428353
0.655949 1.648820 -1.425510
0.665406 1.644947 -1.425528
0.675250 1.642132 -1.426362
0.682027 1.631131 -1.420914
0.690179 1.623978 -1.418411
0.699354 1.619570 -1.418020
0.710656 1.620566 -1.421816
0.720713 1.618311 -1.423114
0.406354 0.781499 -0.780101
0.410305 0.777760 -0.778733
0.412165 0.769344 -0.773682
0.414392 0.761942 -0.769409
0.418554 0.758949 -0.768605
0.423058 0.756722 -0.768410
0.427304 0.753954 -0.767787
0.431302 0.750686 -0.766766
0.435069 0.746975 -0.765390
0.439747 0.745169 -0.765538
0.443300 0.741093 -0.763869
0.447469 0.738293 -0.763222
0.451913 0.736051 -0.763027
0.455817 0.732770 -0.761995
0.459740 0.729556 -0.761018
0.463551 0.726158 -0.759891
0.469322 0.726420 -0.761747
0.473288 0.723320 -0.760871
0.480077 0.725327 -0.764181
0.486167 0.725980 -0.766402
0.489177 0.721149 -0.764123
0.491631 0.715419 -0.761096
0.496944 0.714666 -0.762181
0.501754 0.713017 -0.762535
0.506654 0.711501 -0.763009
0.511955 0.710620 -0.764023
0.515405 0.706691 -0.762497
0.518938 0.702929 -0.761111
0.522818 0.699746 -0.760213
0.527455 0.697763 -0.760331
0.531213 0.694405 -0.759295
0.535560 0.691964 -0.759040
0.540713 0.690731 -0.759822
0.545684 0.689192 -0.760355
0.548620 0.684627 -0.758309
0.553644 0.683139 -0.758905
0.557565 0.680035 -0.758122
0.561654 0.677175 -0.757555
0.565971 0.674634 -0.757273
0.570480 0.672349 -0.757222
0.575981 0.671405 -0.758352
0.580509 0.669096 -0.758307
0.586158 0.668270 -0.759574
0.591935 0.667558 -0.760963
0.598700 0.668082 -0.763466
0.603903 0.666502 -0.764131
0.609494 0.665377 -0.765219
0.614050 0.662897 -0.765118
0.617738 0.659312 -0.764039
0.623473 0.658259 -0.765243
0.627709 0.655323 -0.764770
0.633704 0.654497 -0.766217
0.637536 0.651034 -0.765293
0.641594 0.647834 -0.764618
0.642826 0.641337 -0.760935
0.646827 0.638095 -0.760229
0.650719 0.634722 -0.759410
0.654725 0.631475 -0.758715
0.659405 0.628970 -0.758718
0.662927 0.625169 -0.757526
0.667260 0.622254 -0.757168
0.672109 0.619880 -0.757327
0.676893 0.617413 -0.757411
0.681033 0.614244 -0.756844
0.687213 0.613189 -0.758289
0.693194 0.611876 -0.759511
0.694066 0.605326 -0.755738
0.699165 0.603094 -0.756094
0.704838 0.601409 -0.756985
0.709365 0.598566 -0.756766
0.714868 0.596665 -0.757466
0.715608 0.590165 -0.753682
0.719236 0.586489 -0.752635
0.724211 0.584099 -0.752843
0.729249 0.581763 -0.753102
0.734536 0.579654 -0.753580
0.739385 0.577145 -0.753651
0.744376 0.574772 -0.753848
0.751428 0.574241 -0.755881
0.752335 0.568287 -0.752437
0.754797 0.563781 -0.750411
0.758409 0.560335 -0.749420
0.763637 0.558319 -0.749851
0.766922 0.554694 -0.748603
0.769613 0.550642 -0.746869
0.774379 0.548382 -0.746933
0.778523 0.545664 -0.746479
0.779488 0.540441 -0.743366
0.781202 0.535935 -0.740930
0.785856 0.533866 -0.740981
0.787940 0.529845 -0.738922
0.785195 0.522180 -0.732941
0.790504 0.520888 -0.733618
0.799163 0.522213 -0.737021
0.813771 0.528048 -0.745196
0.838905 0.541702 -0.761728
0.853054 0.547013 -0.769338
0.865382 0.550945 -0.775440
-0.361758 1.398339 -1.025062
-0.357179 1.403193 -1.030036
-0.353155 1.410655 -1.036627
-0.349654 1.420733 -1.044847
-0.349121 1.442675 -1.060478
-0.339260 1.430453 -1.054785
-0.333372 1.433621 -1.058681
-0.329059 1.443566 -1.066819
-0.328255 1.468408 -1.084333
-0.313152 1.466323 -1.086783
-0.304808 1.462548 -1.086241
-0.268370 1.473036 -1.101839
-0.261603 1.479226 -1.107534
-0.251699 1.470333 -1.103559
-0.241999 1.462332 -1.100121
-0.229198 1.481880 -1.116054
-0.201836 1.577254 -1.186294
-0.191067 1.565746 -1.180544
-0.183459 1.575406 -1.188563
-0.166152 1.581708 -1.196145
-0.156815 1.580019 -1.196775
-0.136487 1.562003 -1.188412
-0.119849 1.575299 -1.200630
-0.045005 1.698162 -1.298862
0.160281 1.905624 -1.484590
0.183184 1.923008 -1.501739
0.193239 1.910285 -1.495446
0.203060 1.896223 -1.488202
0.214261 1.900295 -1.493627
0.225608 1.905340 -1.499761
0.237579 1.916177 -1.509996
0.246854 1.898887 -1.500483
0.255949 1.881559 -1.490913
0.267764 1.890090 -1.499583
0.278942 1.892222 -1.503763
0.289038 1.885221 -1.501490
0.297479 1.865821 -1.490404
0.306499 1.852195 -1.483391
0.315791 1.841446 -1.478410
0.328866 1.857287 -1.492424
0.340143 1.859925 -1.497044
0.350727 1.857805 -1.498273
0.361181 1.854868 -1.498925
0.372119 1.854843 -1.501685
0.380736 1.841365 -1.494749
0.391293 1.839341 -1.496077
0.402403 1.840255 -1.499547
0.411486 1.830397 -1.495210
0.421629 1.826321 -1.495072
0.431098 1.819020 -1.492585
0.442411 1.820766 -1.496708
0.453380 1.820669 -1.499503
0.462136 1.810427 -1.494868
0.466513 1.781297 -1.476321
0.474172 1.767574 -1.469060
0.483363 1.760795 -1.466904
0.499846 1.783947 -1.486907
0.506400 1.766311 -1.476735
0.514998 1.757303 -1.472939
0.523099 1.746678 -1.467927
0.532323 1.740559 -1.466264
0.542561 1.738255 -1.467454
0.552723 1.735640 -1.468422
0.561200 1.727141 -1.464974
0.570364 1.721195 -1.463440
0.579751 1.716106 -1.462551
0.588601 1.709332 -1.460388
0.595031 1.694942 -1.452444
0.605573 1.693893 -1.454611
0.614818 1.688761 -1.453682
0.623258 1.681263 -1.450946
0.629804 1.668300 -1.444021
0.638219 1.661124 -1.441509
0.646281 1.653072 -1.438317
0.655093 1.647287 -1.436862
0.664300 1.642670 -1.436309
0.673252 1.637399 -1.435253
0.681930 1.631454 -1.433673
0.689312 1.622199 -1.429518
0.697464 1.615114 -1.427041
0.705913 1.608891 -1.425232
0.716276 1.607512 -1.427214
0.722848 1.596778 -1.421867
0.730455 1.588759 -1.418638
0.741666 1.589415 -1.422244
0.753012 1.590248 -1.426014
0.423077 0.756557 -0.774519
0.428488 0.756237 -0.775860
0.432477 0.752882 -0.774769
0.435374 0.747307 -0.771887
0.439069 0.743458 -0.770390
0.442411 0.738949 -0.768356
0.446646 0.736277 -0.767809
0.450581 0.733034 -0.766799
0.454132 0.729081 -0.765208
0.457977 0.725736 -0.764113
0.462275 0.723270 -0.763740
0.466018 0.719786 -0.762531
0.470284 0.717289 -0.762137
0.474438 0.714597 -0.761585
0.479407 0.713362 -0.762245
0.483645 0.710818 -0.761827
0.487785 0.708110 -0.761276
0.492045 0.705616 -0.760907
0.497311 0.704822 -0.761969
0.500770 0.700976 -0.760478
0.505255 0.698852 -0.760438
0.510549 0.698033 -0.761509
0.515218 0.696169 -0.761708
0.520668 0.695523 -0.762952
0.524561 0.692394 -0.762095
0.527839 0.688330 -0.760440
0.530473 0.683317 -0.757971
0.536806 0.683933 -0.760340
0.540918 0.681163 -0.759811
0.545803 0.679529 -0.760272
0.549483 0.676118 -0.759202
0.553572 0.673306 -0.758659
0.557305 0.669989 -0.757680
0.562008 0.668039 -0.757906
0.566469 0.665733 -0.757830
0.570416 0.662706 -0.757130
0.576465 0.662521 -0.758950
0.582236 0.661897 -0.760406
0.589036 0.662575 -0.763041
0.594596 0.661546 -0.764181
0.600567 0.660995 -0.765770
0.604314 0.657547 -0.764779
0.608918 0.655184 -0.764772
0.614034 0.653436 -0.765335
0.616840 0.648806 -0.763299
0.621858 0.646898 -0.763743
0.627780 0.646043 -0.765167
0.633916 0.645383 -0.766794
0.636791 0.640825 -0.764858
0.640625 0.637406 -0.763973
0.644000 0.633459 -0.762606
0.646419 0.628434 -0.760240
0.650283 0.625068 -0.759420
0.653755 0.621261 -0.758195
0.659105 0.619524 -0.758922
0.663415 0.616618 -0.758562
0.667679 0.613650 -0.758152
0.671797 0.610515 -0.757593
0.677060 0.608574 -0.758182
0.681837 0.606096 -0.758270
0.686533 0.603515 -0.758269
0.691454 0.601144 -0.758479
0.695416 0.597793 -0.757747
0.699650 0.594715 -0.757280
0.703366 0.591128 -0.756315
0.707643 0.588097 -0.755891
0.711841 0.584994 -0.755393
0.716289 0.582136 -0.755132
0.721077 0.579601 -0.755186
0.725352 0.576591 -0.754761
0.729687 0.573652 -0.754393
0.735505 0.572073 -0.755381
0.740444 0.569698 -0.755557
0.744941 0.566946 -0.755333
0.751068 0.565647 -0.756568
0.752183 0.560002 -0.753338
0.755773 0.556579 -0.752337
0.759371 0.553216 -0.751360
0.762374 0.549414 -0.749884
0.769581 0.549178 -0.752070
0.775871 0.548192 -0.753448
0.779332 0.544928 -0.752401
0.779463 0.539056 -0.748553
0.780176 0.533782 -0.745256
0.786262 0.532877 -0.746515
0.792911 0.532456 -0.748242
0.789157 0.524011 -0.741353
0.787868 0.517651 -0.736591
0.792466 0.515926 -0.736718
0.838938 0.540543 -0.767144
0.845179 0.540012 -0.768468
0.861950 0.547275 -0.778209
-0.364995 1.403531 -1.036943
-0.357018 1.396276 -1.034408
-0.356556 1.416282 -1.048937
-0.349815 1.414432 -1.049762
-0.344167 1.417050 -1.053376
-0.339859 1.425279 -1.060521
-0.333687 1.427113 -1.063619
-0.328312 1.432600 -1.069016
-0.331028 1.470974 -1.095296
-0.312333 1.453863 -1.088219
-0.304840 1.485538 -1.112200
-0.266911 1.454973 -1.099781
-0.259105 1.455523 -1.101874
-0.242941 1.543192 -1.165704
-0.225968 1.545859 -1.170954
-0.221466 1.571408 -1.189402
-0.201853 1.560911 -1.186028
-0.193187 1.562877 -1.189055
-0.186830 1.580966 -1.202697
0.136750 1.910299 -1.495919
0.147903 1.915320 -1.501933
0.156746 1.877244 -1.477815
0.168065 1.886849 -1.487049
0.179247 1.892593 -1.493614
0.188424 1.869376 -1.479828
0.199512 1.874038 -1.485656
0.210248 1.873681 -1.487968
0.222306 1.888108 -1.500762
0.234025 1.897060 -1.509729
0.243177 1.879142 -1.499647
0.253309 1.872252 -1.497385
0.264905 1.879069 -1.504897
0.276673 1.886528 -1.512905
0.286682 1.878780 -1.510063
0.295663 1.863519 -1.501827
0.303934 1.844087 -1.490567
0.313966 1.838698 -1.489384
0.323939 1.833161 -1.488096
0.334346 1.830759 -1.489077
0.345960 1.836074 -1.495661
0.358466 1.846347 -1.505877
0.369070 1.844443 -1.507283
0.378552 1.836063 -1.503978
0.389197 1.834527 -1.505666
0.398317 1.824712 -1.501307
0.407572 1.816042 -1.497777
0.417179 1.809513 -1.495811
0.429649 1.817304 -1.504390
0.441078 1.819518 -1.508896
0.447948 1.800245 -1.497532
0.458234 1.797320 -1.498243
0.465023 1.778975 -1.487510
0.471446 1.759848 -1.476154
0.480188 1.751244 -1.472605
0.489826 1.746580 -1.471992
0.502025 1.752213 -1.479095
0.512756 1.751718 -1.481634
0.520882 1.741190 -1.476641
0.528546 1.729277 -1.470586
0.538687 1.726761 -1.471611
0.548266 1.722216 -1.471109
0.558761 1.720917 -1.473075
0.568900 1.718325 -1.474070
0.578140 1.712699 -1.472762
0.587591 1.707860 -1.472055
0.597212 1.703622 -1.471810
0.602413 1.685526 -1.460934
0.614046 1.687822 -1.465700
0.622760 1.681075 -1.463520
0.629104 1.667420 -1.455999
0.637527 1.660192 -1.453426
0.647106 1.656407 -1.453519
0.654873 1.647543 -1.449667
0.662620 1.638810 -1.445906
0.671609 1.633624 -1.444904
0.680389 1.627935 -1.443511
0.688784 1.621307 -1.441379
0.696501 1.613037 -1.437951
0.704855 1.606530 -1.435904
0.713334 1.600423 -1.434170
0.719735 1.589308 -1.428464
0.727528 1.581782 -1.425590
0.736026 1.576044 -1.424133
0.745081 1.571668 -1.423764
0.753388 1.565588 -1.422036
0.761508 1.559154 -1.420023
0.770372 1.554452 -1.419402
0.780751 1.553097 -1.421483
0.788492 1.545962 -1.418912
0.438818 0.742610 -0.775965
0.443143 0.740054 -0.775514
0.446710 0.736010 -0.773844
0.450323 0.732106 -0.772287
0.453712 0.727822 -0.770412
0.457834 0.724987 -0.769732
0.461654 0.721602 -0.768598
0.465101 0.717560 -0.766917
0.469192 0.714740 -0.766253
0.473334 0.712028 -0.765681
0.476702 0.707951 -0.763969
0.480676 0.704984 -0.763186
0.485427 0.703375 -0.763551
0.489369 0.700367 -0.762741
0.492444 0.695911 -0.760709
0.495954 0.692233 -0.759333
0.500359 0.690057 -0.759237
0.505140 0.688480 -0.759660
0.511491 0.689395 -0.762228
0.516067 0.687418 -0.762335
0.519937 0.684322 -0.761487
0.523380 0.680579 -0.760083
0.526952 0.677061 -0.758876
0.531054 0.674359 -0.758380
0.538148 0.676104 -0.761768
0.541870 0.672790 -0.760762
0.545379 0.669179 -0.759501
0.548210 0.664615 -0.757403
0.553154 0.663084 -0.757980
0.558094 0.661514 -0.758537
0.563682 0.660809 -0.759876
0.568725 0.659305 -0.760525
0.572896 0.656589 -0.760105
0.577867 0.654930 -0.760644
0.584679 0.655666 -0.763351
0.589335 0.653503 -0.763474
0.594606 0.652107 -0.764304
0.600226 0.651115 -0.765520
0.602960 0.646437 -0.763399
0.607236 0.643710 -0.763060
0.612637 0.642352 -0.763989
0.617081 0.639786 -0.763826
0.620063 0.635444 -0.762035
0.626355 0.635054 -0.763910
0.631718 0.633505 -0.764733
0.634913 0.629397 -0.763186
0.638322 0.625548 -0.761885
0.638730 0.618306 -0.757396
0.642717 0.615162 -0.756756
0.649167 0.614739 -0.758705
0.651500 0.609738 -0.756326
0.655055 0.606096 -0.755238
0.661116 0.605140 -0.756729
0.665561 0.602419 -0.756545
0.670457 0.600155 -0.756811
0.677837 0.600437 -0.759559
0.680146 0.595451 -0.757205
0.684072 0.592137 -0.756477
0.688355 0.589185 -0.756104
0.694323 0.587895 -0.757370
0.699408 0.585702 -0.757757
0.704027 0.583042 -0.757684
0.708290 0.580039 -0.757268
0.713270 0.577720 -0.757531
0.718060 0.575219 -0.757606
0.721717 0.571673 -0.756620
0.725947 0.568679 -0.756175
0.732129 0.567470 -0.757531
0.736449 0.564582 -0.757164
0.740756 0.561710 -0.756791
0.743032 0.557093 -0.754592
0.748189 0.555041 -0.755005
0.751715 0.551617 -0.753965
0.754425 0.547558 -0.752222
0.760076 0.546040 -0.753089
0.766809 0.545446 -0.754896
0.775061 0.546113 -0.758005
0.778102 0.542540 -0.756595
0.780164 0.538263 -0.754376
0.784531 0.535925 -0.754158
0.794285 0.537903 -0.758508
0.790042 0.528939 -0.751063
0.789470 0.523017 -0.746789
0.789846 0.517969 -0.743370
0.798321 0.519200 -0.746688
0.816610 0.527834 -0.758029
0.834750 0.536251 -0.769135
0.840339 0.535293 -0.769964
0.830605 0.523175 -0.758459
-0.359427 1.378113 -1.029607
-0.362521 1.409459 -1.051422
-0.357001 1.411333 -1.054641
-0.350775 1.411156 -1.056545
-0.345661 1.415545 -1.061333
-0.340576 1.420653 -1.066570
-0.337747 1.435024 -1.077716
-0.327479 1.421468 -1.071001
-0.325926 1.442382 -1.086337
-0.322761 1.458061 -1.098340
-0.310831 1.469249 -1.109380
-0.287295 1.432438 -1.089292
-0.240364 1.429768 -1.098030
-0.244086 1.490803 -1.139747
-0.241928 1.524096 -1.163358
-0.237210 1.545508 -1.179211
-0.229381 1.550767 -1.184448
-0.218458 1.538367 -1.178024
-0.209098 1.534881 -1.177461
-0.200113 1.533707 -1.178413
-0.193158 1.545888 -1.188219
-0.181131 1.586858 -1.218956
-0.158495 1.554027 -1.200562
-0.150457 1.561767 -1.207474
-0.126910 1.595277 -1.235243
0.016336 1.815704 -1.417174
0.136271 1.947409 -1.535216
0.144657 1.890472 -1.497629
0.154474 1.871650 -1.486846
0.165826 1.881912 -1.496619
0.175392 1.862911 -1.485683
0.183332 1.823802 -1.460427
0.193514 1.819592 -1.459929
0.207598 1.863336 -1.493639
0.219995 1.882083 -1.509623
0.230009 1.872872 -1.505658
0.239934 1.863643 -1.501674
0.249931 1.855943 -1.498781
0.261817 1.865983 -1.508660
0.272750 1.866671 -1.511836
0.283627 1.866663 -1.514530
0.293114 1.855578 -1.509219
0.302724 1.846204 -1.505135
0.312466 1.838384 -1.502173
0.321812 1.828283 -1.497544
0.328113 1.798522 -1.478550
0.340600 1.810453 -1.489987
0.354290 1.828817 -1.506192
0.365366 1.830151 -1.509961
0.374409 1.819502 -1.504932
0.384593 1.815758 -1.504982
0.393438 1.804848 -1.499742
0.402068 1.793327 -1.494035
0.415454 1.806522 -1.506652
0.426999 1.809706 -1.511883
0.431491 1.778720 -1.491678
0.442362 1.779050 -1.494781
0.452974 1.778036 -1.496896
0.461697 1.768576 -1.492693
0.467481 1.746794 -1.479218
0.476605 1.739984 -1.476966
0.484940 1.730130 -1.472413
0.496914 1.735154 -1.479099
0.510268 1.745187 -1.489616
0.518942 1.736770 -1.486169
0.526136 1.723080 -1.478699
0.534831 1.715326 -1.475730
0.546129 1.717045 -1.479997
0.556322 1.714703 -1.481176
0.565755 1.709729 -1.480345
0.575498 1.705858 -1.480365
0.587040 1.707903 -1.484953
0.597495 1.706243 -1.486703
0.596937 1.669871 -1.461570
0.608989 1.673674 -1.467529
0.619014 1.671068 -1.468533
0.626870 1.661991 -1.464498
0.634561 1.652644 -1.460240
0.644426 1.649725 -1.461005
0.653561 1.644734 -1.460153
0.661536 1.636593 -1.456822
0.669976 1.629873 -1.454604
0.679093 1.625066 -1.453894
0.687003 1.617134 -1.450710
0.695944 1.612001 -1.449742
0.704746 1.606565 -1.448535
0.713151 1.600198 -1.446585
0.719455 1.588769 -1.440581
0.725209 1.576265 -1.433692
0.733460 1.569954 -1.431759
0.743062 1.566874 -1.432429
0.751900 1.562013 -1.431669
0.759114 1.553512 -1.427965
0.767757 1.548332 -1.426949
0.776904 1.544292 -1.426864
0.784535 1.536982 -1.424117
0.792740 1.530988 -1.422442
0.800872 1.524898 -1.420690
0.809047 1.518953 -1.419058
0.817552 1.513735 -1.418025
0.826994 1.510425 -1.418575
0.457523 0.723910 -0.775111
0.461849 0.721454 -0.774750
0.465521 0.717796 -0.773382
0.469179 0.714152 -0.772025
0.473204 0.711203 -0.771255
0.475451 0.705116 -0.767830
0.479091 0.701568 -0.766549
0.484769 0.701572 -0.768290
0.488006 0.697350 -0.766442
0.491311 0.693292 -0.764731
0.495275 0.690368 -0.763992
0.498486 0.686222 -0.762205
0.502707 0.683755 -0.761864
0.505837 0.679540 -0.760018
0.511153 0.678820 -0.761202
0.515606 0.676709 -0.761191
0.519001 0.672956 -0.759756
0.523120 0.670330 -0.759309
0.527177 0.667611 -0.758786
0.532228 0.666367 -0.759570
0.536671 0.664195 -0.759548
0.540336 0.660883 -0.758527
0.544462 0.658241 -0.758105
0.548686 0.655733 -0.757812
0.554747 0.655782 -0.759814
0.560660 0.655557 -0.761595
0.566223 0.654789 -0.762910
0.569613 0.651039 -0.761553
0.573602 0.648103 -0.760937
0.579071 0.647113 -0.762098
0.584406 0.645898 -0.763074
0.590271 0.645319 -0.764652
0.595297 0.643613 -0.765218
0.599106 0.640343 -0.764362
0.603205 0.637433 -0.763846
0.608330 0.635773 -0.764500
0.612342 0.632725 -0.763880
0.616615 0.629982 -0.763555
0.622028 0.628575 -0.764493
0.626794 0.626365 -0.764697
0.630652 0.623076 -0.763898
0.631475 0.616310 -0.759812
0.635480 0.613220 -0.759206
0.639546 0.610192 -0.758668
0.642166 0.605555 -0.756597
0.646816 0.603165 -0.756683
0.651959 0.601284 -0.757275
0.656837 0.599087 -0.757575
0.660881 0.595982 -0.757006
0.665909 0.593900 -0.757441
0.670760 0.591607 -0.757682
0.675151 0.588823 -0.757450
0.679462 0.585950 -0.757133
0.683639 0.582937 -0.756682
0.688282 0.580384 -0.756689
0.692381 0.577291 -0.756157
0.697511 0.575198 -0.756627
0.702234 0.572703 -0.756693
0.708423 0.571588 -0.758152
0.711792 0.567813 -0.756913
0.715706 0.564574 -0.756201
0.722804 0.564262 -0.758473
0.728644 0.562779 -0.759543
0.733561 0.560468 -0.759747
0.735916 0.555914 -0.757603
0.739770 0.552736 -0.756851
0.743653 0.549630 -0.756139
0.746895 0.546023 -0.754864
0.751346 0.543501 -0.754689
0.758095 0.542945 -0.756556
0.763765 0.541506 -0.757458
0.767831 0.538787 -0.756954
0.773082 0.537092 -0.757495
0.778422 0.535517 -0.758117
0.785571 0.535429 -0.760295
0.791660 0.534533 -0.761556
0.789557 0.527301 -0.755877
0.791612 0.523448 -0.753785
0.797363 0.522528 -0.754825
0.805196 0.523243 -0.757602
0.815091 0.525536 -0.762068
0.828447 0.530411 -0.769345
0.831314 0.527515 -0.767988
0.845966 0.533339 -0.776241
-0.367394 1.399852 -1.052003
-0.361919 1.401144 -1.054901
-0.356835 1.404309 -1.058982
-0.352009 1.408957 -1.064003
-0.347572 1.415644 -1.070325
-0.340841 1.414442 -1.071568
-0.339662 1.434764 -1.086667
-0.331758 1.430265 -1.085757
-0.329810 1.449532 -1.100202
-0.325136 1.459061 -1.108355
-0.298859 1.440707 -1.102172
-0.265152 1.425032 -1.099171
-0.259821 1.436466 -1.108459
-0.248958 1.421715 -1.100471
-0.249764 1.465313 -1.131011
-0.242957 1.516161 -1.168224
-0.204346 1.490804 -1.158300
-0.196068 1.548151 -1.200125
-0.189311 1.562733 -1.211663
-0.180256 1.562557 -1.213305
-0.168627 1.543804 -1.202433
-0.145286 1.573138 -1.227491
-0.066801 1.626274 -1.280114
-0.045611 1.758137 -1.376827
0.098868 1.877023 -1.491314
0.108635 1.844297 -1.470580
0.118536 1.825264 -1.459496
0.129840 1.844741 -1.475752
0.141657 1.870288 -1.496400
0.152944 1.880298 -1.506047
0.163739 1.879853 -1.508267
0.172621 1.849559 -1.489130
0.182357 1.836207 -1.482085
0.190544 1.804163 -1.461587
0.203828 1.839231 -1.489346
0.216200 1.859088 -1.506245
0.226771 1.856857 -1.507252
0.236693 1.848107 -1.503549
0.247287 1.846631 -1.505117
0.257355 1.840339 -1.503199
0.268075 1.840170 -1.505741
0.277739 1.831105 -1.501809
0.289174 1.836699 -1.508589
0.300139 1.838088 -1.512322
0.309994 1.831158 -1.509969
0.314494 1.787354 -1.480491
0.323347 1.775891 -1.474739
0.336516 1.792920 -1.490015
0.349877 1.809759 -1.505218
0.361852 1.816969 -1.513349
0.365583 1.775773 -1.485553
0.379902 1.796448 -1.503716
0.389402 1.789505 -1.501356
0.398632 1.781411 -1.498132
0.409559 1.782311 -1.501638
0.419953 1.780362 -1.503027
0.427705 1.765663 -1.494837
0.436022 1.754269 -1.489110
0.449030 1.764695 -1.499849
0.457622 1.754852 -1.495295
0.460380 1.720188 -1.471897
0.470169 1.716711 -1.472116
0.481389 1.719133 -1.476837
0.492847 1.722252 -1.482116
0.504375 1.725353 -1.487409
0.514631 1.723314 -1.488790
0.524145 1.718456 -1.488016
0.534558 1.716954 -1.489830
0.544683 1.714352 -1.490807
0.555238 1.713226 -1.492937
0.562941 1.702262 -1.487455
0.572626 1.698250 -1.487356
0.583137 1.696977 -1.489396
0.588108 1.677822 -1.477493
0.593667 1.661148 -1.467483
0.604236 1.660452 -1.469962
0.614566 1.658932 -1.471810
0.620148 1.643234 -1.462505
0.630358 1.641486 -1.464177
0.640106 1.638349 -1.464763
0.649370 1.633838 -1.464269
0.658732 1.629634 -1.464023
0.668518 1.626598 -1.464713
0.676721 1.619326 -1.462029
0.684676 1.611529 -1.458919
0.693061 1.604978 -1.456801
0.702746 1.601814 -1.457404
0.711465 1.596225 -1.456062
0.718190 1.585815 -1.450825
0.725357 1.576681 -1.446604
0.734362 1.572074 -1.446046
0.744031 1.569041 -1.446774
0.752309 1.562787 -1.444886
0.758216 1.551243 -1.438668
0.766123 1.544387 -1.436274
0.774937 1.539604 -1.435579
0.782791 1.532772 -1.433203
0.790552 1.525825 -1.430728
0.798292 1.518916 -1.428281
0.805793 1.511596 -1.425491
0.814808 1.507452 -1.425340
0.822906 1.501465 -1.423661
0.829671 1.492889 -1.419816
0.837150 1.485829 -1.417235
0.845025 1.479606 -1.415356
0.853852 1.475241 -1.415045
0.864820 1.474882 -1.418132
0.477445 0.708025 -0.776602
0.480281 0.703000 -0.774058
0.484074 0.699694 -0.772984
0.488162 0.696915 -0.772366
0.491259 0.692480 -0.770321
0.495334 0.689718 -0.769722
0.498934 0.686187 -0.768459
0.501179 0.680488 -0.765308
0.505579 0.678312 -0.765227
0.510209 0.676490 -0.765465
0.514163 0.673597 -0.764771
0.517831 0.670269 -0.763699
0.521485 0.666938 -0.762627
0.525640 0.664373 -0.762239
0.528897 0.660475 -0.760672
0.532806 0.657560 -0.759983
0.537140 0.655262 -0.759853
0.541184 0.652538 -0.759350
0.545170 0.649728 -0.758779
0.548886 0.646542 -0.757875
0.553411 0.644476 -0.757991
0.560075 0.645303 -0.760751
0.563626 0.641850 -0.759636
0.569118 0.640988 -0.760898
0.574749 0.640258 -0.762302
0.579603 0.638462 -0.762746
0.585732 0.638271 -0.764690
0.592598 0.638945 -0.767461
0.595322 0.634337 -0.765351
0.598736 0.630614 -0.764066
0.605204 0.630642 -0.766301
0.608229 0.626425 -0.764573
0.611883 0.622981 -0.763578
0.617671 0.622063 -0.764981
0.622231 0.619653 -0.764989
0.624695 0.614800 -0.762681
0.628730 0.611773 -0.762119
0.631874 0.607732 -0.760591
0.635136 0.603838 -0.759206
0.638833 0.600435 -0.758300
0.642989 0.597533 -0.757885
0.647230 0.594713 -0.757559
0.652528 0.593008 -0.758333
0.657059 0.590457 -0.758292
0.662382 0.588715 -0.759060
0.666152 0.585340 -0.758223
0.670033 0.582083 -0.757504
0.675117 0.580038 -0.757996
0.679913 0.577686 -0.758188
0.683776 0.574401 -0.757446
0.688025 0.571501 -0.757088
0.692898 0.569206 -0.757340
0.698169 0.567280 -0.757968
0.703043 0.564968 -0.758199
0.706892 0.561702 -0.757445
0.710935 0.558639 -0.756882
0.715928 0.556461 -0.757220
0.719790 0.553275 -0.756493
0.727344 0.553405 -0.759207
0.731999 0.550950 -0.759208
0.735553 0.547565 -0.758202
0.739735 0.544772 -0.757784
0.743226 0.541433 -0.756749
0.747530 0.538840 -0.756465
0.753330 0.537542 -0.757525
0.758068 0.535396 -0.757638
0.761624 0.532332 -0.756715
0.769330 0.532698 -0.759448
0.774743 0.531236 -0.760163
0.778440 0.528464 -0.759397
0.783793 0.527071 -0.760078
0.788851 0.525505 -0.760512
0.792845 0.523182 -0.760053
0.799163 0.522714 -0.761577
0.807077 0.523502 -0.764438
0.814589 0.524020 -0.766948
0.817655 0.521273 -0.765763
0.823643 0.520775 -0.767019
0.824038 0.516253 -0.763699
-0.360495 1.370194 -1.041656
-0.361976 1.395267 -1.059871
-0.357437 1.400137 -1.065100
-0.353909 1.409245 -1.073066
-0.349050 1.414222 -1.078358
-0.345077 1.423112 -1.086185
-0.341015 1.432436 -1.094297
-0.334944 1.434825 -1.097886
-0.328388 1.435880 -1.100585
-0.323667 1.444767 -1.108394
-0.323461 1.472824 -1.128786
-0.286116 1.408177 -1.091975
-0.277228 1.470400 -1.138712
-0.253584 1.472391 -1.145488
-0.250422 1.498107 -1.164467
-0.250082 1.540525 -1.194677
-0.225641 1.500869 -1.171651
-0.201724 1.512083 -1.184446
-0.176761 1.520587 -1.195401
-0.165012 1.564763 -1.228944
-0.151857 1.605974 -1.260651
-0.064576 1.698979 -1.343691
0.011990 0.842123 -0.752710
0.017105 0.839215 -0.751717
0.096667 1.876727 -1.504179
0.106233 1.834821 -1.476674
0.116269 1.819564 -1.468167
0.126943 1.824057 -1.473813
0.138310 1.842267 -1.489349
0.149435 1.851732 -1.498652
0.159460 1.840121 -1.492791
0.170523 1.846821 -1.500154
0.177655 1.795210 -1.465324
0.187949 1.793689 -1.466716
0.199415 1.806843 -1.478789
0.210699 1.815988 -1.487998
0.221591 1.819549 -1.493175
0.234149 1.839697 -1.510507
0.244057 1.831682 -1.507284
0.253847 1.823266 -1.503763
0.264454 1.822672 -1.505989
0.275155 1.822761 -1.508734
0.285440 1.819367 -1.508927
0.296837 1.824569 -1.515486
0.305077 1.806157 -1.504579
0.314040 1.794134 -1.498381
0.325024 1.796471 -1.502850
0.334619 1.789479 -1.500390
0.345745 1.792392 -1.505327
0.352967 1.771440 -1.492425
0.264414 1.194726 -1.062599
0.270584 1.188569 -1.059875
0.277038 1.184246 -1.058527
0.417069 1.719543 -1.472787
0.433089 1.745398 -1.495280
0.446540 1.757975 -1.507748
0.461825 1.777886 -1.525880
0.460502 1.724755 -1.488154
0.466731 1.706025 -1.476677
0.477795 1.707958 -1.481050
0.488493 1.708186 -1.484134
0.500030 1.711547 -1.489657
0.510842 1.711839 -1.492835
0.522016 1.713329 -1.496962
0.531209 1.707377 -1.495327
0.540965 1.703557 -1.495352
0.551731 1.703298 -1.498163
0.561286 1.698768 -1.497652
0.570755 1.693999 -1.496956
0.578783 1.684565 -1.492596
0.586114 1.673135 -1.486649
0.591608 1.656235 -1.476362
0.604455 1.662583 -1.484436
0.612947 1.655359 -1.481786
0.618008 1.638081 -1.471136
0.626821 1.632261 -1.469574
0.636752 1.629732 -1.470641
0.644948 1.622285 -1.467783
0.652501 1.613205 -1.463606
0.658378 1.599773 -1.455917
0.667181 1.594484 -1.454763
0.680599 1.601335 -1.463422
0.690829 1.599625 -1.465194
0.698959 1.592534 -1.462612
0.708387 1.588782 -1.462744
0.716207 1.581095 -1.459672
0.724949 1.575754 -1.458513
0.734170 1.571596 -1.458326
0.744042 1.568964 -1.459400
0.750932 1.559448 -1.454816
0.759073 1.552934 -1.452697
0.766973 1.545960 -1.450196
0.774876 1.539082 -1.447771
0.782974 1.532711 -1.445766
0.790438 1.525060 -1.442691
0.797036 1.515700 -1.438182
0.805265 1.509861 -1.436612
0.813462 1.504003 -1.435029
0.820933 1.496736 -1.432261
0.829344 1.491415 -1.431133
0.837029 1.484708 -1.428836
0.843440 1.475617 -1.424516
0.851269 1.469346 -1.422584
0.860636 1.466002 -1.423155
0.868365 1.459606 -1.421129
0.876256 1.453557 -1.419402
0.883588 1.446543 -1.416849
0.891693 1.440963 -1.415534
0.899577 1.435022 -1.413913
0.498497 0.684687 -0.773478
0.501478 0.680167 -0.771341
0.505145 0.676791 -0.770209
0.509682 0.674808 -0.770313
0.514053 0.672549 -0.770182
0.517742 0.669235 -0.769120
0.522098 0.666948 -0.768978
0.525149 0.662696 -0.767086
0.529138 0.659868 -0.766473
0.532422 0.656013 -0.764940
0.535177 0.651420 -0.762741
0.539781 0.649508 -0.762971
0.543758 0.646689 -0.762390
0.547434 0.643451 -0.761433
0.551705 0.641038 -0.761237
0.555519 0.637991 -0.760470
0.558986 0.634480 -0.759283
0.562894 0.631566 -0.758652
0.569210 0.631808 -0.760957
0.574421 0.630539 -0.761884
0.578449 0.627712 -0.761375
0.584394 0.627304 -0.763143
0.588885 0.625012 -0.763165
0.594158 0.623665 -0.764093
0.595768 0.617798 -0.760762
0.600840 0.616172 -0.761450
0.607177 0.616018 -0.763561
0.612238 0.614285 -0.764190
0.616449 0.611525 -0.763850
0.619602 0.607530 -0.762332
0.623029 0.603864 -0.761134
0.627666 0.601566 -0.761269
0.631415 0.598256 -0.760431
0.635500 0.595315 -0.759960
0.639364 0.592125 -0.759253
0.643400 0.589116 -0.758731
0.645223 0.583748 -0.755879
0.651179 0.582773 -0.757381
0.657538 0.582166 -0.759270
0.660682 0.578197 -0.757815
0.664290 0.574720 -0.756849
0.669106 0.572464 -0.757114
0.674209 0.570478 -0.757658
0.678528 0.567703 -0.757405
0.683272 0.565339 -0.757570
0.688329 0.563269 -0.758037
0.692590 0.560433 -0.757713
0.695874 0.556691 -0.756442
0.701288 0.554956 -0.757237
0.705916 0.552493 -0.757267
0.709636 0.549219 -0.756431
0.714536 0.547036 -0.756719
0.719668 0.545074 -0.757220
0.726464 0.544586 -0.759265
0.731636 0.542674 -0.759782
0.734094 0.538454 -0.757803
0.738300 0.535795 -0.757449
0.743161 0.533734 -0.757698
0.748212 0.531871 -0.758121
0.752383 0.529325 -0.757760
0.756423 0.526731 -0.757295
0.763853 0.526936 -0.759840
0.768821 0.525189 -0.760204
0.772615 0.522569 -0.759552
0.777077 0.520550 -0.759500
0.784251 0.520703 -0.761798
0.792466 0.521689 -0.764974
0.795588 0.518817 -0.763796
0.803031 0.519299 -0.766303
0.808537 0.518369 -0.767171
0.812398 0.516283 -0.766671
0.816592 0.514528 -0.766474
0.811857 0.506347 -0.758923
-0.367345 1.388082 -1.061809
-0.363898 1.396009 -1.069094
-0.362640 1.412332 -1.081853
-0.357428 1.415403 -1.085988
-0.351281 1.415618 -1.088241
-0.347005 1.423229 -1.095323
-0.342660 1.431294 -1.102703
-0.336552 1.433362 -1.106131
-0.328993 1.430328 -1.106173
-0.324779 1.440921 -1.115195
-0.321308 1.455400 -1.126795
-0.315066 1.459494 -1.131511
-0.275529 1.488611 -1.162555
-0.241465 1.526892 -1.197627
-0.234158 1.534220 -1.204419
-0.221934 1.514118 -1.192561
-0.212463 1.509256 -1.191026
-0.200488 1.488966 -1.178943
-0.192223 1.490963 -1.182033
-0.159587 1.573203 -1.247248
0.005808 0.840795 -0.756745
0.010961 0.837747 -0.755634
0.016024 0.836047 -0.755477
0.021090 0.833612 -0.754802
0.026042 0.834213 -0.756283
0.031025 0.833626 -0.756927
0.083406 1.864800 -1.506309
0.093700 1.844006 -1.493765
0.104577 1.851892 -1.501890
0.114846 1.839151 -1.495136
0.125257 1.833499 -1.493504
0.135388 1.822900 -1.488284
0.145748 1.819024 -1.487943
0.156450 1.821815 -1.492467
0.165617 1.799277 -1.478532
0.174830 1.781026 -1.467689
0.185560 1.786050 -1.473863
0.196385 1.791408 -1.480314
0.207649 1.801073 -1.489966
0.219495 1.815785 -1.503380
0.231355 1.828756 -1.515569
0.241470 1.822994 -1.513962
0.250946 1.811742 -1.508289
0.261496 1.810943 -1.510363
0.272194 1.811303 -1.513314
0.282136 1.805411 -1.511627
0.291822 1.797917 -1.508745
0.302531 1.798393 -1.511823
0.312616 1.794290 -1.511488
0.253747 1.179435 -1.057980
0.260419 1.176488 -1.057634
0.266879 1.172427 -1.056446
0.273609 1.170004 -1.056503
0.279869 1.165141 -1.054707
0.286426 1.161990 -1.054215
0.293877 1.163382 -1.057201
0.301497 1.165409 -1.060691
0.309492 1.168985 -1.065390
0.464485 1.700368 -1.485066
