ply
format ascii 1.0
comment ---
element vertex 1739
property float x
property float y
property float z
element face 0
property list uchar uint vertex_indices
end_header
-0.222342 1.650929 0.107390
-0.215626 1.658076 0.107279
-0.208754 1.664440 0.107116
-0.201737 1.670025 0.106902
-0.194162 1.671181 0.106392
-0.187619 1.681620 0.106512
-0.182191 1.703330 0.107387
-0.176053 1.719999 0.107918
-0.168478 1.723455 0.107567
-0.162460 1.743938 0.108343
-0.154049 1.739395 0.107470
-0.146124 1.740093 0.106947
-0.140921 1.775236 0.108669
-0.133474 1.784529 0.108702
-0.127072 1.809937 0.109773
-0.118897 1.811687 0.109317
-0.110892 1.816428 0.109058
-0.103851 1.839093 0.109937
-0.096030 1.850574 0.110103
-0.088214 1.864355 0.110412
-0.080065 1.873156 0.110407
-0.071681 1.877785 0.110142
-0.063868 1.900956 0.111028
-0.055088 1.897484 0.110265
-0.046628 1.905993 0.110244
-0.038114 1.915756 0.110300
-0.029303 1.911064 0.109477
-0.020685 1.921483 0.109577
-0.012013 1.939257 0.110119
-0.003168 1.945128 0.109943
0.005749 1.956001 0.110068
0.014788 1.969413 0.110344
0.024010 1.987431 0.110890
0.033113 1.989245 0.110478
0.042365 1.996966 0.110417
0.051964 2.014924 0.110955
0.061392 2.022137 0.110866
0.070832 2.027788 0.110688
0.080415 2.035598 0.110637
0.090027 2.042418 0.110532
0.099612 2.047356 0.110322
0.109251 2.052412 0.110122
0.118984 2.058188 0.109967
0.128945 2.066652 0.109967
0.138931 2.074261 0.109921
0.148734 2.078322 0.109680
0.158699 2.083918 0.109528
0.168804 2.090519 0.109437
0.178621 2.093020 0.109123
0.188627 2.097269 0.108911
0.198402 2.098609 0.108544
0.208233 2.100316 0.108205
0.217412 2.095587 0.107521
0.226596 2.091227 0.106866
0.236021 2.089235 0.106349
0.245444 2.087303 0.105844
0.254622 2.083443 0.105243
0.263578 2.078057 0.104570
0.272490 2.072626 0.103905
0.281479 2.068034 0.103294
0.290093 2.061017 0.102565
0.299015 2.056451 0.101976
0.307805 2.051207 0.101361
0.316066 2.042799 0.100591
0.324521 2.035994 0.099916
0.333196 2.030798 0.099336
0.340948 2.020385 0.098496
0.349240 2.013519 0.097852
0.358257 2.010926 0.097440
0.367293 2.008474 0.097045
0.375994 2.004272 0.096571
0.383981 1.996503 0.095925
0.392558 1.991958 0.095456
0.400151 1.982699 0.094757
0.408474 1.977251 0.094264
0.416862 1.972243 0.093806
0.425136 1.966822 0.093338
0.433218 1.960665 0.092845
0.441401 1.955097 0.092394
0.449264 1.948273 0.091890
0.456940 1.940828 0.091368
0.465077 1.935466 0.090963
0.473052 1.929541 0.090541
0.479156 1.916328 0.089766
0.487236 1.911170 0.089407
0.494796 1.904104 0.088964
0.502321 1.897051 0.088535
0.510269 1.891688 0.088201
0.518361 1.886917 0.087909
0.526418 1.882065 0.087625
0.530836 1.864617 0.086722
0.538621 1.859149 0.086429
0.548255 1.859953 0.086461
0.556871 1.857253 0.086329
0.562308 1.844199 0.085690
0.568748 1.834660 0.085236
0.568115 1.803097 0.083691
0.581474 1.815669 0.084363
0.588954 1.809852 0.084123
0.595312 1.800745 0.083727
0.598473 1.782387 0.082875
0.606559 1.778779 0.082769
0.616433 1.780289 0.082926
0.615376 1.750879 0.081535
0.621077 1.740988 0.081128
0.630567 1.741658 0.081257
0.639308 1.740206 0.081281
0.644902 1.730363 0.080884
0.651786 1.724104 0.080667
0.658492 1.717498 0.080431
0.664107 1.708242 0.080058
0.671062 1.702556 0.079861
0.678023 1.696999 0.079665
0.683213 1.687233 0.079247
0.689666 1.680753 0.078986
0.697090 1.676745 0.078840
0.704911 1.673775 0.078733
0.711009 1.666900 0.078412
0.717468 1.661048 0.078125
0.723771 1.655028 0.077810
0.730100 1.649263 0.077487
0.736258 1.643322 0.077131
0.743446 1.639845 0.076876
0.749996 1.635160 0.076531
0.755308 1.628040 0.076034
0.759502 1.618836 0.075402
0.765842 1.614432 0.074980
0.771430 1.608706 0.074458
0.778840 1.606964 0.074102
0.784371 1.601614 0.073529
0.790973 1.598674 0.073039
0.796196 1.593230 0.072388
0.801106 1.587455 0.071683
0.808716 1.587214 0.071213
0.810846 1.576620 0.070199
0.819938 1.579679 0.069811
0.825211 1.575658 0.069041
0.831133 1.573119 0.068305
0.841293 1.578686 0.067915
-0.645970 1.143935 0.117654
-0.643498 1.148884 0.118077
-0.641923 1.155652 0.118659
-0.638973 1.160197 0.118958
-0.635322 1.163686 0.119103
-0.631249 1.166598 0.119145
-0.625159 1.165966 0.118764
-0.622485 1.171824 0.119044
-0.617952 1.174419 0.118931
-0.615015 1.180220 0.119123
-0.611615 1.185366 0.119203
-0.607626 1.189584 0.119145
-0.603049 1.192842 0.118946
-0.599545 1.198394 0.118953
-0.594879 1.201827 0.118699
-0.590790 1.206589 0.118551
-0.586116 1.210336 0.118263
-0.580701 1.212701 0.117802
-0.579684 1.224391 0.118269
-0.575178 1.229012 0.117978
-0.569569 1.231414 0.117437
-0.564600 1.235297 0.117023
-0.560993 1.242290 0.116899
-0.557334 1.249351 0.116758
-0.553000 1.255078 0.116463
-0.547127 1.257436 0.115821
-0.542688 1.263155 0.115494
-0.536410 1.264699 0.114750
-0.534108 1.275684 0.114904
-0.529033 1.280266 0.114430
-0.524113 1.285308 0.113993
-0.520540 1.293766 0.113868
-0.514797 1.296974 0.113245
-0.509702 1.301860 0.112776
-0.505434 1.308947 0.112505
-0.500543 1.314543 0.112094
-0.495439 1.319666 0.111639
-0.490169 1.324418 0.111151
-0.485506 1.330888 0.110816
-0.479357 1.333360 0.110129
-0.475081 1.341080 0.109906
-0.469744 1.345927 0.109434
-0.464727 1.351763 0.109049
-0.459635 1.357468 0.108657
-0.454480 1.363078 0.108260
-0.451027 1.373929 0.108307
-0.445972 1.380107 0.107962
-0.440705 1.385729 0.107575
-0.435396 1.391315 0.107189
-0.429687 1.395698 0.106710
-0.424451 1.401690 0.106368
-0.419821 1.409817 0.106202
-0.414642 1.416264 0.105905
-0.409033 1.421362 0.105505
-0.403605 1.427181 0.105167
-0.398958 1.435916 0.105062
-0.393128 1.440568 0.104643
-0.387470 1.445938 0.104286
-0.382845 1.455323 0.104240
-0.377232 1.461172 0.103928
-0.371339 1.466059 0.103548
-0.364975 1.469162 0.103041
-0.358433 1.471572 0.102491
-0.352777 1.477689 0.102221
-0.348442 1.489598 0.102381
-0.344879 1.505283 0.102815
-0.339886 1.515206 0.102827
-0.334710 1.524651 0.102806
-0.334675 1.558285 0.104514
-0.323145 1.538828 0.102432
-0.319336 1.555871 0.102952
-0.309392 1.543146 0.101380
-0.303655 1.551144 0.101271
-0.298225 1.561060 0.101298
-0.291043 1.562027 0.100709
-0.284828 1.568279 0.100489
-0.279004 1.576989 0.100440
-0.272666 1.583127 0.100218
-0.265759 1.586143 0.099790
-0.259917 1.595786 0.099809
-0.253681 1.603439 0.099697
-0.247809 1.613856 0.099769
-0.241720 1.623402 0.099783
-0.236145 1.637057 0.100065
-0.229517 1.644012 0.099910
-0.223140 1.653240 0.099903
-0.216268 1.659265 0.099692
-0.209806 1.668927 0.099714
-0.202361 1.671133 0.099264
-0.194579 1.670563 0.098643
-0.187301 1.674382 0.098305
-0.182572 1.702257 0.099471
-0.177426 1.728521 0.100523
-0.171462 1.748847 0.101198
-0.166418 1.780991 0.102591
-0.157936 1.777608 0.101800
-0.147757 1.753575 0.099764
-0.142756 1.791945 0.101517
-0.135568 1.805712 0.101774
-0.127566 1.809623 0.101439
-0.119587 1.814349 0.101156
-0.111276 1.814269 0.100591
-0.103933 1.831309 0.101038
-0.096770 1.854815 0.101859
-0.088612 1.861687 0.101703
-0.080535 1.871912 0.101742
-0.072105 1.875185 0.101380
-0.064503 1.904201 0.102497
-0.055957 1.909504 0.102250
-0.047263 1.910594 0.101766
-0.038558 1.911557 0.101280
-0.029768 1.907290 0.100505
-0.021017 1.902817 0.099726
-0.012554 1.942071 0.101386
-0.003704 1.955432 0.101597
0.005256 1.965234 0.101610
0.014254 1.968612 0.101271
0.023267 1.970690 0.100865
0.032714 1.996682 0.101760
0.041912 2.000378 0.101443
0.051482 2.016788 0.101813
0.060840 2.021447 0.101552
0.070363 2.029516 0.101476
0.079946 2.037150 0.101377
0.089560 2.043852 0.101232
0.099130 2.048344 0.100973
0.108621 2.050570 0.100600
0.118192 2.053743 0.100280
0.128347 2.065585 0.100414
0.138268 2.072323 0.100285
0.148054 2.076288 0.100017
0.158264 2.085180 0.100005
0.168300 2.090887 0.099834
0.178217 2.094523 0.099562
0.187973 2.095939 0.099182
0.198123 2.101272 0.099006
0.207523 2.098550 0.098432
0.216896 2.095744 0.097861
0.226258 2.092979 0.097301
0.235658 2.090700 0.096773
0.244903 2.087213 0.096194
0.253901 2.081901 0.095534
0.263083 2.078319 0.094969
0.271992 2.072859 0.094321
0.280606 2.065525 0.093592
0.289319 2.059284 0.092927
0.298163 2.054242 0.092329
0.306757 2.047778 0.091674
0.314816 2.038175 0.090879
0.323899 2.035404 0.090421
0.332675 2.030842 0.089888
0.341006 2.023824 0.089249
0.349391 2.017399 0.088648
0.357609 2.010278 0.088027
0.366593 2.007568 0.087623
0.374682 2.000173 0.087010
0.383233 1.995414 0.086532
0.391949 1.991605 0.086109
0.399956 1.984389 0.085539
0.408001 1.977583 0.085000
0.416098 1.971214 0.084492
0.424600 1.966876 0.084090
0.432812 1.961308 0.083642
0.441351 1.957303 0.083278
0.449260 1.950646 0.082804
0.456605 1.941770 0.082240
0.464615 1.935875 0.081825
0.473022 1.931706 0.081500
0.480041 1.922077 0.080938
0.487083 1.912788 0.080404
0.494567 1.905418 0.079970
0.501612 1.896554 0.079479
0.509740 1.891878 0.079191
0.517904 1.887373 0.078921
0.524786 1.878368 0.078460
0.532320 1.871825 0.078121
0.538257 1.859925 0.077552
0.547634 1.859872 0.077529
0.556333 1.857457 0.077410
0.560999 1.841900 0.076709
0.564134 1.821836 0.075814
0.566583 1.800153 0.074856
0.578270 1.807624 0.075223
0.588005 1.808802 0.075316
0.596011 1.804647 0.075177
0.600118 1.789008 0.074526
0.607822 1.784189 0.074372
0.616323 1.781690 0.074329
0.615341 1.752442 0.073079
0.617192 1.731826 0.072224
0.630702 1.743622 0.072846
0.638901 1.740669 0.072800
0.644179 1.729956 0.072404
0.651963 1.726039 0.072317
0.660071 1.723001 0.072270
0.663628 1.708393 0.071693
0.670681 1.702917 0.071529
0.676885 1.695442 0.071268
0.684114 1.690640 0.071123
0.691185 1.685558 0.070957
0.699122 1.682660 0.070881
0.705480 1.676120 0.070625
0.710378 1.666369 0.070207
0.717022 1.660883 0.069970
0.723275 1.654681 0.069681
0.729537 1.648696 0.069382
0.736323 1.644070 0.069123
0.742771 1.638888 0.068815
0.748599 1.632569 0.068428
0.754616 1.626896 0.068043
0.759836 1.619776 0.067563
0.765453 1.613758 0.067103
0.770608 1.607048 0.066579
0.775841 1.600781 0.066042
0.783334 1.599358 0.065690
0.788420 1.593310 0.065093
0.793670 1.587874 0.064487
0.800371 1.585561 0.063985
0.807082 1.583490 0.063454
0.813022 1.580159 0.062831
0.820475 1.579962 0.062306
0.826115 1.576535 0.061602
0.831548 1.572977 0.060855
0.839765 1.574841 0.060302
-0.647637 1.144930 0.112400
-0.644954 1.149569 0.112747
-0.642715 1.155214 0.113161
-0.639728 1.159750 0.113418
-0.635946 1.163060 0.113509
-0.632804 1.167733 0.113701
-0.626015 1.165894 0.113179
-0.621350 1.168103 0.113037
-0.618797 1.174454 0.113281
-0.614728 1.178169 0.113214
-0.611751 1.184169 0.113340
-0.607981 1.188865 0.113295
-0.604920 1.195150 0.113371
-0.599922 1.197830 0.113047
-0.595942 1.202695 0.112907
-0.591865 1.207551 0.112731
-0.587370 1.211732 0.112456
-0.585301 1.221093 0.112659
-0.579632 1.223191 0.112119
-0.574672 1.226885 0.111710
-0.570360 1.232091 0.111422
-0.565475 1.236210 0.111006
-0.560360 1.239943 0.110532
-0.557511 1.248812 0.110525
-0.552706 1.253507 0.110105
-0.547453 1.257290 0.109584
-0.542923 1.262824 0.109212
-0.539406 1.270850 0.109055
-0.534718 1.276281 0.108648
-0.529218 1.279870 0.108066
-0.523729 1.283539 0.107486
-0.519561 1.290517 0.107194
-0.515652 1.298279 0.106964
-0.509759 1.301168 0.106302
-0.504748 1.306340 0.105838
-0.499970 1.312200 0.105432
-0.494717 1.316898 0.104925
-0.492432 1.329615 0.105095
-0.486718 1.333296 0.104501
-0.481448 1.338233 0.104015
-0.475534 1.341428 0.103388
-0.470139 1.346109 0.102887
-0.464694 1.350701 0.102384
-0.459492 1.356064 0.101947
-0.456569 1.368286 0.102061
-0.450926 1.372580 0.101544
-0.445555 1.377754 0.101101
-0.441171 1.386085 0.100910
-0.435482 1.390454 0.100414
-0.429823 1.394973 0.099935
-0.425304 1.403290 0.099752
-0.421297 1.413509 0.099714
-0.415454 1.417753 0.099229
-0.409166 1.420516 0.098640
-0.403739 1.426308 0.098284
-0.399209 1.435429 0.098176
-0.393426 1.440225 0.097755
-0.388517 1.448351 0.097581
-0.382863 1.453876 0.097223
-0.377270 1.459755 0.096896
-0.371408 1.464723 0.096509
-0.365177 1.468317 0.096032
-0.358894 1.471758 0.095551
-0.352965 1.476725 0.095182
-0.348412 1.487664 0.095229
-0.344712 1.502681 0.095552
-0.339328 1.510796 0.095405
-0.334540 1.521883 0.095460
-0.329273 1.531160 0.095393
-0.322023 1.531384 0.094728
-0.314122 1.528386 0.093860
-0.308194 1.534950 0.093629
-0.304417 1.552698 0.094127
-0.298792 1.561613 0.094049
-0.291447 1.561722 0.093408
-0.285237 1.567977 0.093166
-0.279164 1.575258 0.092993
-0.272840 1.581415 0.092751
-0.266861 1.589898 0.092657
-0.260158 1.594362 0.092315
-0.253884 1.601722 0.092156
-0.248450 1.614908 0.092355
-0.241869 1.621177 0.092131
-0.235697 1.630603 0.092100
-0.230497 1.647528 0.092520
-0.223860 1.654944 0.092366
-0.217244 1.662974 0.092250
-0.210677 1.671917 0.092189
-0.203163 1.673677 0.091706
-0.195164 1.671357 0.090990
-0.187301 1.669984 0.090337
-0.181477 1.687413 0.090776
-0.175695 1.706755 0.091318
-0.172067 1.749802 0.093206
-0.165357 1.764092 0.093441
-0.159588 1.790396 0.094349
-0.151641 1.793661 0.093954
-0.143684 1.797108 0.093574
-0.135660 1.800018 0.093166
-0.128234 1.811734 0.093248
-0.120156 1.815120 0.092872
-0.112395 1.824134 0.092805
-0.104798 1.837435 0.092970
-0.097003 1.849222 0.093051
-0.089053 1.859962 0.093075
-0.080861 1.867265 0.092913
-0.072839 1.880722 0.093079
-0.064376 1.884640 0.092739
-0.056146 1.897804 0.092887
-0.047718 1.907674 0.092860
-0.038989 1.906831 0.092278
-0.030170 1.899416 0.091362
-0.021439 1.893778 0.090547
-0.013143 1.952808 0.093037
-0.004248 1.968823 0.093318
0.004764 1.975758 0.093137
0.013805 1.978357 0.092741
0.022895 1.982857 0.092443
0.032114 1.992493 0.092402
0.041537 2.007404 0.092623
0.050915 2.015366 0.092499
0.060197 2.017771 0.092105
0.069707 2.025930 0.091995
0.079138 2.030166 0.091697
0.089066 2.044625 0.091894
0.098553 2.047354 0.091527
0.108029 2.049354 0.091131
0.117689 2.054132 0.090870
0.127815 2.065521 0.090925
0.137261 2.065250 0.090433
0.147704 2.078728 0.090590
0.157679 2.084451 0.090385
0.167742 2.090515 0.090201
0.177665 2.094249 0.089912
0.187574 2.097365 0.089600
0.197353 2.098745 0.089214
0.207077 2.099366 0.088800
0.216481 2.096801 0.088248
0.225974 2.095187 0.087747
0.235239 2.091626 0.087167
0.244381 2.087222 0.086557
0.253419 2.082225 0.085931
0.262488 2.077754 0.085336
0.271258 2.071251 0.084662
0.280113 2.065721 0.084040
0.289048 2.061036 0.083465
0.297914 2.056084 0.082888
0.306363 2.048596 0.082211
0.314991 2.042617 0.081610
0.324183 2.040396 0.081180
0.333815 2.040873 0.080875
0.342666 2.036629 0.080378
0.349643 2.021808 0.079441
0.357384 2.011920 0.078726
0.365104 2.002329 0.078036
0.374058 1.999639 0.077648
0.382638 1.995051 0.077191
0.390818 1.988566 0.076664
0.399735 1.985901 0.076309
0.407780 1.979066 0.075790
0.415628 1.971510 0.075253
0.423536 1.964450 0.074749
0.431897 1.959616 0.074348
0.440432 1.955643 0.073993
0.448595 1.950121 0.073586
0.455529 1.939537 0.072984
0.464085 1.935953 0.072680
0.473009 1.933889 0.072449
0.480511 1.926143 0.071999
0.487237 1.915556 0.071444
0.494752 1.908262 0.071036
0.502111 1.900533 0.070622
0.508996 1.891222 0.070156
0.516677 1.885003 0.069827
0.524740 1.880237 0.069567
0.531271 1.870175 0.069106
0.539593 1.866473 0.068912
0.547721 1.862125 0.068704
0.556400 1.859619 0.068580
0.564474 1.855108 0.068387
0.562283 1.817783 0.066881
0.570428 1.814081 0.066740
0.578841 1.811211 0.066643
0.587310 1.808484 0.066560
0.594635 1.802297 0.066347
0.600760 1.792644 0.066002
0.604815 1.777158 0.065429
0.610698 1.767268 0.065088
0.613424 1.748668 0.064401
0.615598 1.728986 0.063675
0.626409 1.733436 0.063930
0.638942 1.742315 0.064370
0.646527 1.737694 0.064265
0.653202 1.730742 0.064066
0.657432 1.717589 0.063615
0.664089 1.710927 0.063427
0.671671 1.706714 0.063336
0.677452 1.698103 0.063061
0.683778 1.691017 0.062843
0.691189 1.686708 0.062730
0.697571 1.680040 0.062512
0.704195 1.674110 0.062313
0.710327 1.667189 0.062061
0.715680 1.658671 0.061727
0.722171 1.652969 0.061493
0.729158 1.648555 0.061292
0.735585 1.643066 0.061027
0.741332 1.636284 0.060686
0.747693 1.631064 0.060384
0.751811 1.621268 0.059868
0.761314 1.623157 0.059802
0.764976 1.612933 0.059212
0.769657 1.605159 0.058691
0.775882 1.600841 0.058278
0.780209 1.592924 0.057686
0.786742 1.589736 0.057250
0.793586 1.587392 0.056812
0.800123 1.584660 0.056322
0.806591 1.582027 0.055799
0.812156 1.577892 0.055179
0.819550 1.577501 0.054667
0.828427 1.580110 0.054232
0.831847 1.572659 0.053374
0.832806 1.560971 0.052323
-0.643199 1.135274 0.106052
-0.643855 1.145774 0.106944
-0.644954 1.157378 0.107904
-0.640595 1.159531 0.107885
-0.635663 1.160819 0.107741
-0.630020 1.160967 0.107446
-0.626539 1.165233 0.107518
-0.623045 1.169683 0.107568
-0.620201 1.175562 0.107718
-0.615195 1.177577 0.107451
-0.612165 1.183532 0.107529
-0.608191 1.187888 0.107412
-0.604437 1.192868 0.107319
-0.601044 1.198761 0.107276
-0.596494 1.202556 0.106998
-0.592568 1.207773 0.106822
-0.589082 1.214075 0.106716
-0.582349 1.213872 0.105971
-0.580103 1.223096 0.106077
-0.574888 1.226299 0.105598
-0.570072 1.230466 0.105184
-0.566030 1.236432 0.104912
-0.561424 1.241325 0.104522
-0.556984 1.246713 0.104157
-0.553388 1.254129 0.103955
-0.548493 1.258769 0.103491
-0.544475 1.265529 0.103199
-0.540338 1.272160 0.102882
-0.535242 1.276663 0.102371
-0.529250 1.279097 0.101677
-0.523891 1.283088 0.101111
-0.520653 1.292362 0.100983
-0.514973 1.295731 0.100356
-0.510506 1.302206 0.099983
-0.505094 1.306369 0.099419
-0.500005 1.311421 0.098926
-0.494686 1.315935 0.098391
-0.489121 1.319843 0.097809
-0.486164 1.330878 0.097791
-0.481490 1.337420 0.097417
-0.476110 1.342092 0.096899
-0.470411 1.345915 0.096320
-0.465098 1.350879 0.095833
-0.461939 1.362219 0.095831
-0.456464 1.366933 0.095330
-0.451403 1.372952 0.094931
-0.445530 1.376580 0.094360
-0.440557 1.383039 0.094003
-0.435526 1.389436 0.093645
-0.430649 1.396446 0.093334
-0.426282 1.405271 0.093157
-0.421223 1.411994 0.092832
-0.415022 1.414986 0.092250
-0.409560 1.420538 0.091854
-0.404158 1.426406 0.091485
-0.398800 1.432549 0.091140
-0.394608 1.443067 0.091096
-0.388575 1.447062 0.090613
-0.382957 1.452683 0.090246
-0.377389 1.458623 0.089905
-0.371383 1.462985 0.089465
-0.365435 1.467667 0.089051
-0.359403 1.472103 0.088628
-0.353545 1.477358 0.088263
-0.347633 1.482521 0.087898
-0.344725 1.500838 0.088370
-0.338536 1.505328 0.087966
-0.332476 1.510516 0.087611
-0.328622 1.526058 0.087903
-0.321348 1.526045 0.087232
-0.314096 1.526062 0.086573
-0.307432 1.528909 0.086094
-0.302891 1.542600 0.086274
-0.298342 1.556848 0.086485
-0.291804 1.561131 0.086100
-0.285486 1.566769 0.085800
-0.279311 1.573433 0.085564
-0.273062 1.579959 0.085322
-0.267218 1.589177 0.085238
-0.261268 1.598216 0.085144
-0.254565 1.602978 0.084807
-0.248169 1.609946 0.084598
-0.242047 1.619113 0.084515
-0.237013 1.636306 0.084880
-0.230634 1.644992 0.084768
-0.224339 1.654823 0.084719
-0.217510 1.661214 0.084481
-0.210866 1.669472 0.084346
-0.203648 1.673572 0.083987
-0.195669 1.671436 0.083296
-0.187946 1.671325 0.082721
-0.182269 1.690137 0.083156
-0.174476 1.690049 0.082588
-0.168476 1.708096 0.082976
-0.162478 1.727888 0.083448
-0.161015 1.800533 0.086648
-0.153006 1.803624 0.086230
-0.141141 1.758760 0.083364
-0.134079 1.772113 0.083489
-0.128105 1.802529 0.084472
-0.120801 1.817002 0.084641
-0.112822 1.822596 0.084365
-0.104755 1.827492 0.084055
-0.097031 1.839729 0.084109
-0.089428 1.856820 0.084398
-0.081602 1.872299 0.084604
-0.073404 1.881745 0.084514
-0.064967 1.886609 0.084202
-0.056458 1.890475 0.083846
-0.048115 1.902461 0.083877
-0.039661 1.914284 0.083899
-0.030597 1.893495 0.082389
-0.021891 1.888040 0.081610
-0.013712 1.959440 0.084403
-0.004768 1.962858 0.084028
0.004207 1.966568 0.083670
0.013305 1.981873 0.083842
0.022412 1.986453 0.083526
0.031577 1.991850 0.083248
0.041045 2.009116 0.083505
0.050449 2.017730 0.083372
0.059698 2.018642 0.082899
0.069022 2.021395 0.082512
0.078669 2.031570 0.082453
0.088159 2.036038 0.082147
0.097896 2.044645 0.082022
0.107543 2.050054 0.081761
0.117377 2.057734 0.081600
0.127068 2.061970 0.081294
0.137318 2.073836 0.081315
0.147152 2.078346 0.081027
0.156983 2.082203 0.080715
0.167011 2.087969 0.080486
0.177035 2.093009 0.080232
0.186920 2.095915 0.079893
0.196682 2.097180 0.079492
0.206411 2.097923 0.079075
0.216063 2.097785 0.078629
0.225518 2.095766 0.078115
0.234760 2.091967 0.077536
0.243883 2.087383 0.076934
0.252906 2.082244 0.076319
0.261922 2.077346 0.075723
0.270733 2.071160 0.075085
0.279753 2.066834 0.074530
0.289457 2.067529 0.074180
0.298366 2.062665 0.073621
0.306361 2.051967 0.072847
0.314555 2.043095 0.072155
0.323913 2.041899 0.071768
0.333028 2.039212 0.071332
0.340908 2.029307 0.070632
0.351269 2.034046 0.070497
0.354894 2.000894 0.068943
0.364043 1.999344 0.068592
0.373193 1.997780 0.068251
0.381629 1.992504 0.067780
0.390404 1.989082 0.067389
0.399065 1.985160 0.066990
0.407627 1.980832 0.066587
0.414983 1.970930 0.065990
0.422912 1.963989 0.065513
0.430988 1.957898 0.065078
0.439283 1.952917 0.064696
0.446706 1.944280 0.064192
0.455060 1.939806 0.063850
0.463730 1.936706 0.063570
0.471218 1.928824 0.063128
0.479524 1.924379 0.062822
0.486717 1.915656 0.062373
0.493666 1.906206 0.061911
0.502169 1.902814 0.061677
0.509804 1.896232 0.061341
0.516734 1.887218 0.060929
0.524760 1.882295 0.060675
0.531402 1.872595 0.060262
0.538917 1.866096 0.059974
0.547929 1.864743 0.059880
0.556730 1.862611 0.059770
0.563649 1.854300 0.059450
0.571513 1.849167 0.059254
0.570780 1.816994 0.058109
0.583505 1.827451 0.058486
0.585944 1.806079 0.057743
0.592598 1.797918 0.057478
0.598554 1.787832 0.057152
0.604572 1.778124 0.056848
0.619551 1.794287 0.057471
0.614426 1.753097 0.056061
0.616089 1.731908 0.055366
0.628022 1.739389 0.055698
0.636719 1.737823 0.055712
0.643759 1.731804 0.055570
0.649714 1.723025 0.055331
0.656833 1.717430 0.055207
0.664918 1.714387 0.055174
0.671717 1.708128 0.055024
0.677697 1.699957 0.054802
0.684031 1.692828 0.054612
0.688841 1.682171 0.054289
0.696516 1.678602 0.054212
0.702883 1.672033 0.054018
0.708627 1.664181 0.053765
0.714187 1.656117 0.053491
0.720928 1.650951 0.053306
0.728498 1.647800 0.053177
0.732899 1.637767 0.052779
0.739763 1.633414 0.052564
0.745029 1.625783 0.052209
0.749780 1.617316 0.051798
0.757419 1.615231 0.051590
0.766693 1.616713 0.051480
0.771956 1.610008 0.051046
0.777124 1.603385 0.050585
0.781095 1.594627 0.050016
0.792875 1.601813 0.049975
0.796238 1.592359 0.049313
0.804314 1.592496 0.048951
0.807336 1.583002 0.048219
0.813007 1.578963 0.047641
0.819102 1.575993 0.047062
0.825496 1.573832 0.046474
0.831202 1.570620 0.045814
0.842503 1.578029 0.045466
-0.648270 1.142271 0.101357
-0.643756 1.143775 0.101326
-0.642048 1.150424 0.101744
-0.640342 1.157329 0.102147
-0.633429 1.155083 0.101647
-0.630525 1.160242 0.101805
-0.627051 1.164576 0.101847
-0.624525 1.170881 0.102032
-0.619710 1.173137 0.101800
-0.615213 1.176156 0.101602
-0.611971 1.181753 0.101603
-0.608678 1.187469 0.101578
-0.605095 1.192840 0.101483
-0.601661 1.198710 0.101397
-0.597038 1.202418 0.101082
-0.592039 1.205522 0.100681
-0.587730 1.210172 0.100389
-0.583153 1.214431 0.100034
-0.577938 1.217504 0.099549
-0.574247 1.223911 0.099330
-0.569746 1.228765 0.098953
-0.566822 1.237173 0.098858
-0.562290 1.242273 0.098459
-0.557675 1.247317 0.098037
-0.553384 1.253211 0.097671
-0.548635 1.258197 0.097214
-0.544153 1.263903 0.096805
-0.539680 1.269750 0.096396
-0.535841 1.277215 0.096107
-0.528972 1.277569 0.095239
-0.525315 1.285688 0.094988
-0.520614 1.291403 0.094538
-0.515303 1.295693 0.093974
-0.509586 1.299009 0.093333
-0.505942 1.307668 0.093102
-0.500745 1.312459 0.092573
-0.495258 1.316545 0.091991
-0.490551 1.322759 0.091571
-0.486172 1.329967 0.091224
-0.481170 1.335585 0.090760
-0.476039 1.340924 0.090279
-0.470837 1.346135 0.089792
-0.466447 1.353756 0.089480
-0.461961 1.361243 0.089159
-0.457128 1.367838 0.088778
-0.451247 1.371383 0.088189
-0.446298 1.377814 0.087805
-0.440829 1.382733 0.087321
-0.435833 1.389222 0.086949
-0.431183 1.396945 0.086663
-0.426321 1.404140 0.086345
-0.420358 1.407821 0.085799
-0.414788 1.412865 0.085349
-0.409795 1.419981 0.085039
-0.404611 1.426591 0.084700
-0.399005 1.431836 0.084278
-0.394356 1.440663 0.084088
-0.388430 1.444995 0.083618
-0.382578 1.449682 0.083177
-0.378025 1.459446 0.083053
-0.372015 1.463794 0.082601
-0.365800 1.467412 0.082110
-0.359979 1.472689 0.081725
-0.353849 1.476811 0.081276
-0.347789 1.481320 0.080857
-0.345928 1.504115 0.081514
-0.340050 1.510039 0.081179
-0.333633 1.513704 0.080717
-0.327011 1.516501 0.080212
-0.320608 1.520383 0.079775
-0.313985 1.523301 0.079290
-0.308894 1.533859 0.079237
-0.304804 1.549927 0.079491
-0.299796 1.561948 0.079516
-0.291971 1.559498 0.078748
-0.285399 1.563694 0.078350
-0.279522 1.571933 0.078175
-0.273062 1.577190 0.077842
-0.267479 1.587865 0.077800
-0.261770 1.598314 0.077745
-0.255277 1.604388 0.077460
-0.248662 1.609975 0.077152
-0.242527 1.619041 0.077027
-0.236614 1.630149 0.077006
-0.231100 1.644767 0.077162
-0.224507 1.652386 0.076961
-0.217500 1.657324 0.076626
-0.210723 1.664376 0.076399
-0.203825 1.670906 0.076148
-0.196001 1.670002 0.075533
-0.188259 1.669676 0.074952
-0.182357 1.686299 0.075199
-0.176485 1.704631 0.075522
-0.170049 1.718913 0.075645
-0.162944 1.727436 0.075491
-0.156524 1.744422 0.075736
-0.149395 1.754838 0.075667
-0.141605 1.758156 0.075267
-0.134507 1.770968 0.075309
-0.128820 1.805262 0.076333
-0.121209 1.815283 0.076234
-0.113179 1.819931 0.075892
-0.105121 1.824771 0.075560
-0.097140 1.831849 0.075330
-0.089669 1.850881 0.075631
-0.081982 1.868912 0.075881
-0.073906 1.881106 0.075870
-0.065526 1.887603 0.075609
-0.057078 1.893755 0.075334
-0.048734 1.906264 0.075333
-0.040011 1.905643 0.074770
-0.031204 1.899276 0.073969
-0.022404 1.888049 0.072972
-0.014136 1.943108 0.074754
-0.005281 1.954798 0.074711
0.003710 1.977232 0.075109
0.012755 1.978883 0.074649
0.021844 1.982886 0.074288
0.030979 1.987419 0.073952
0.040639 2.014801 0.074535
0.050058 2.022953 0.074342
0.059323 2.023557 0.073850
0.068670 2.026263 0.073445
0.078125 2.031011 0.073125
0.087693 2.037293 0.072866
0.097301 2.043149 0.072593
0.107156 2.052546 0.072459
0.117020 2.060548 0.072271
0.126854 2.066837 0.072021
0.136608 2.071009 0.071693
0.146517 2.076727 0.071426
0.156376 2.081040 0.071111
0.166279 2.085336 0.070798
0.176531 2.093170 0.070619
0.186354 2.095387 0.070238
0.196124 2.096744 0.069830
0.205738 2.096348 0.069365
0.215635 2.098620 0.069002
0.225066 2.096335 0.068482
0.234316 2.092575 0.067917
0.243503 2.088486 0.067349
0.252541 2.083422 0.066755
0.261562 2.078508 0.066175
0.270520 2.073380 0.065596
0.279646 2.069745 0.065079
0.289395 2.070669 0.064726
0.298395 2.066322 0.064201
0.305522 2.049744 0.063270
0.314296 2.044657 0.062740
0.323155 2.040309 0.062245
0.331772 2.034653 0.061715
0.341669 2.036756 0.061454
0.350546 2.032806 0.061000
0.354064 1.999051 0.059573
0.362978 1.996282 0.059182
0.372211 1.995239 0.058856
0.381255 1.993173 0.058507
0.390069 1.989945 0.058129
0.399032 1.987496 0.057787
0.407095 1.980726 0.057316
0.414843 1.972672 0.056814
0.422271 1.963393 0.056286
0.430667 1.958767 0.055917
0.438794 1.953038 0.055524
0.446595 1.946035 0.055102
0.453095 1.933710 0.054524
0.463639 1.938499 0.054495
0.470675 1.928756 0.054021
0.478479 1.922332 0.053663
0.484230 1.908031 0.053071
0.492622 1.904256 0.052819
0.497865 1.888678 0.052212
0.507685 1.890420 0.052153
0.515936 1.886297 0.051924
0.522937 1.877759 0.051570
0.530216 1.870368 0.051262
0.538640 1.867041 0.051091
0.547527 1.865261 0.050978
0.554922 1.858475 0.050722
0.562165 1.851296 0.050465
0.568613 1.841683 0.050144
0.569545 1.814864 0.049306
0.576870 1.808623 0.049108
0.585648 1.806896 0.049058
0.594153 1.804285 0.048990
0.602692 1.801741 0.048933
0.612033 1.801497 0.048954
0.612100 1.774540 0.048164
0.612334 1.748756 0.047416
0.618117 1.739084 0.047168
0.627911 1.740597 0.047269
0.636447 1.738569 0.047266
0.643877 1.733565 0.047175
0.649488 1.723838 0.046941
0.657119 1.719538 0.046876
0.665698 1.717705 0.046887
0.673598 1.714151 0.046845
0.678379 1.702885 0.046560
0.684064 1.694091 0.046349
0.689875 1.685797 0.046147
0.695104 1.676301 0.045900
0.702242 1.671530 0.045791
0.708144 1.664001 0.045586
0.713829 1.656169 0.045359
0.720605 1.651023 0.045201
0.727457 1.646201 0.045036
0.733947 1.640735 0.044834
0.738632 1.631513 0.044494
0.744053 1.624163 0.044190
0.750800 1.619893 0.043959
0.759032 1.618950 0.043804
0.766427 1.616382 0.043571
0.772858 1.612001 0.043253
0.778093 1.605402 0.042836
0.783827 1.600090 0.042427
0.788661 1.593240 0.041939
0.798059 1.595718 0.041699
0.803587 1.590733 0.041198
0.809927 1.587596 0.040717
0.816601 1.585342 0.040226
0.818597 1.574417 0.039447
0.823298 1.568983 0.038794
0.830224 1.568000 0.038233
0.834886 1.563036 0.037523
-0.646938 1.138112 0.095568
-0.644992 1.144153 0.095921
-0.640709 1.146295 0.095885
-0.638340 1.152032 0.096133
-0.636007 1.158072 0.096369
-0.631066 1.159607 0.096162
-0.628059 1.164855 0.096248
-0.625645 1.171430 0.096410
-0.619332 1.170949 0.095912
-0.615353 1.174991 0.095775
-0.612624 1.181616 0.095825
-0.610045 1.188771 0.095883
-0.605664 1.192655 0.095621
-0.602042 1.198211 0.095469
-0.597533 1.202196 0.095149
-0.592171 1.204623 0.094668
-0.588944 1.211521 0.094534
-0.584584 1.216295 0.094193
-0.580060 1.220879 0.093811
-0.575427 1.225379 0.093398
-0.571194 1.230864 0.093043
-0.567567 1.237811 0.092786
-0.563114 1.243128 0.092377
-0.558144 1.247427 0.091871
-0.553173 1.251823 0.091359
-0.549214 1.258612 0.091021
-0.544536 1.263895 0.090554
-0.539283 1.267941 0.089982
-0.534293 1.272676 0.089456
-0.529518 1.278005 0.088968
-0.524072 1.281797 0.088361
-0.521850 1.293568 0.088338
-0.512479 1.287767 0.087023
-0.509418 1.297696 0.086857
-0.506066 1.307088 0.086645
-0.501472 1.313439 0.086212
-0.496347 1.318498 0.085687
-0.491079 1.323236 0.085141
-0.486756 1.330596 0.084779
-0.481499 1.335516 0.084250
-0.476250 1.340519 0.083731
-0.471754 1.347719 0.083361
-0.467860 1.356783 0.083117
-0.462621 1.362103 0.082627
-0.457321 1.367313 0.082134
-0.451434 1.370825 0.081536
-0.446277 1.376596 0.081089
-0.441549 1.383792 0.080737
-0.436562 1.390314 0.080346
-0.432366 1.399502 0.080123
-0.426492 1.403414 0.079578
-0.420703 1.407648 0.079059
-0.415361 1.413450 0.078641
-0.410355 1.420516 0.078303
-0.404965 1.426395 0.077899
-0.400100 1.434267 0.077617
-0.394547 1.439834 0.077203
-0.388585 1.444008 0.076713
-0.383531 1.451666 0.076429
-0.378087 1.458032 0.076075
-0.371968 1.461916 0.075586
-0.366183 1.467195 0.075180
-0.360124 1.471488 0.074725
-0.354074 1.475908 0.074282
-0.348185 1.481107 0.073888
-0.344661 1.496670 0.074056
-0.340539 1.510176 0.074109
-0.334434 1.515240 0.073713
-0.327859 1.518283 0.073215
-0.320966 1.519882 0.072648
-0.314398 1.523048 0.072169
-0.308819 1.531168 0.071949
-0.304780 1.547403 0.072144
-0.302272 1.572300 0.072770
-0.292157 1.557942 0.071420
-0.285607 1.562204 0.071014
-0.279743 1.570465 0.070809
-0.273287 1.575696 0.070456
-0.266633 1.579982 0.070061
-0.262177 1.597803 0.070321
-0.255725 1.604111 0.070025
-0.249495 1.612166 0.069814
-0.243526 1.622390 0.069705
-0.237275 1.631267 0.069533
-0.231818 1.646300 0.069645
-0.224960 1.652016 0.069325
-0.218081 1.657913 0.069016
-0.211379 1.665570 0.068788
-0.204448 1.671872 0.068501
-0.196458 1.669603 0.067833
-0.188648 1.668683 0.067232
-0.183704 1.694071 0.067790
-0.178481 1.718979 0.068315
-0.171035 1.723707 0.067959
-0.166620 1.760952 0.068998
-0.156896 1.742826 0.067664
-0.149955 1.755364 0.067640
-0.142300 1.760402 0.067300
-0.135915 1.782718 0.067679
-0.129517 1.807699 0.068160
-0.121643 1.813915 0.067861
-0.113682 1.819594 0.067542
-0.105598 1.823974 0.067172
-0.098490 1.847549 0.067572
-0.090172 1.850443 0.067141
-0.081884 1.854570 0.066762
-0.074513 1.883160 0.067342
-0.065984 1.885595 0.066894
-0.057681 1.896348 0.066770
-0.049166 1.902527 0.066469
-0.040542 1.906029 0.066068
-0.031761 1.901678 0.065372
-0.022974 1.893115 0.064526
-0.014563 1.928568 0.065325
-0.005808 1.955824 0.065807
0.003170 1.972439 0.065888
0.012255 1.982445 0.065725
0.021474 1.996076 0.065692
0.030474 1.988484 0.064896
0.040157 2.016946 0.065391
0.049571 2.024507 0.065137
0.058767 2.022463 0.064548
0.068124 2.025563 0.064144
0.077585 2.030501 0.063807
0.087179 2.037412 0.063539
0.096870 2.044928 0.063294
0.106572 2.051302 0.063011
0.116511 2.060702 0.062832
0.126172 2.064196 0.062456
0.136029 2.070060 0.062163
0.146006 2.076794 0.061901
0.155889 2.081407 0.061571
0.165890 2.086883 0.061274
0.175988 2.092838 0.060994
0.186104 2.098304 0.060703
0.195737 2.098072 0.060234
0.205527 2.099359 0.059819
0.215197 2.099305 0.059367
0.224589 2.096620 0.058841
0.233765 2.092175 0.058267
0.242888 2.087550 0.057696
0.252055 2.083558 0.057153
0.261021 2.078195 0.056577
0.270093 2.073935 0.056043
0.279405 2.071638 0.055576
0.288516 2.067984 0.055076
0.296811 2.058884 0.054425
0.305190 2.050827 0.053815
0.313479 2.042584 0.053211
0.322246 2.037723 0.052714
0.331271 2.034614 0.052277
0.340500 2.032788 0.051886
0.348549 2.024190 0.051311
0.354601 2.004792 0.050442
0.362532 1.996527 0.049900
0.371834 1.995854 0.049582
0.381371 1.996333 0.049304
0.389729 1.990736 0.048867
0.398355 1.986615 0.048481
0.406928 1.982329 0.048100
0.414667 1.974197 0.047625
0.422163 1.965206 0.047138
0.429903 1.957589 0.046700
0.438403 1.953544 0.046369
0.446564 1.948089 0.046011
0.454069 1.939972 0.045593
0.462051 1.934045 0.045245
0.470186 1.928862 0.044928
0.477717 1.921360 0.044561
0.484389 1.910672 0.044121
0.492285 1.904959 0.043824
0.499604 1.897172 0.043484
0.506584 1.888301 0.043128
0.514451 1.882839 0.042871
0.522058 1.876528 0.042604
0.529843 1.870937 0.042366
0.538277 1.867645 0.042199
0.546541 1.863769 0.042028
0.554182 1.857831 0.041814
0.560975 1.849203 0.041542
0.573034 1.857631 0.041720
0.569464 1.816331 0.040625
0.576332 1.808651 0.040408
0.593370 1.832178 0.041004
0.595853 1.811063 0.040460
0.599988 1.795375 0.040064
0.608000 1.791360 0.039977
0.615096 1.784724 0.039830
0.613771 1.754358 0.039078
0.616223 1.735309 0.038624
0.628138 1.742700 0.038859
0.636174 1.739285 0.038819
0.644009 1.735340 0.038770
0.651054 1.729338 0.038670
0.656953 1.720456 0.038498
0.664743 1.716577 0.038457
0.672175 1.711835 0.038393
0.678057 1.703306 0.038228
0.683295 1.693376 0.038024
0.690008 1.687235 0.037914
0.695852 1.679148 0.037746
0.701610 1.671044 0.037570
0.710211 1.669751 0.037563
0.716400 1.662951 0.037400
0.721348 1.653515 0.037155
0.727644 1.647356 0.036980
0.733865 1.641218 0.036789
0.739502 1.633999 0.036550
0.745622 1.628055 0.036324
0.751856 1.622568 0.036087
0.759080 1.619385 0.035886
0.766210 1.616178 0.035657
0.771831 1.610040 0.035324
0.776987 1.603212 0.034945
0.783117 1.598631 0.034593
0.789417 1.594634 0.034224
0.795432 1.590309 0.033813
0.800123 1.583644 0.033311
0.805550 1.578712 0.032818
0.817177 1.585958 0.032588
0.816332 1.569530 0.031745
0.822289 1.566416 0.031193
0.828440 1.563915 0.030619
0.833351 1.559359 0.029963
-0.652084 1.145259 0.090764
-0.644626 1.141741 0.090256
-0.642579 1.147878 0.090533
-0.640184 1.153640 0.090738
-0.636595 1.157487 0.090742
-0.632436 1.160504 0.090638
-0.629475 1.165904 0.090694
-0.625454 1.169570 0.090567
-0.622478 1.175383 0.090580
-0.617933 1.178461 0.090328
-0.614568 1.183964 0.090240
-0.610642 1.188600 0.090044
-0.606468 1.192945 0.089789
-0.602674 1.198218 0.089577
-0.598082 1.202095 0.089220
-0.595143 1.209457 0.089110
-0.589147 1.210817 0.088497
-0.585438 1.216970 0.088235
-0.579493 1.218646 0.087599
-0.576360 1.226324 0.087407
-0.571823 1.231212 0.086977
-0.567163 1.235963 0.086518
-0.563695 1.243445 0.086246
-0.558602 1.247507 0.085702
-0.553136 1.250819 0.085090
-0.549081 1.257402 0.084707
-0.545077 1.264242 0.084330
-0.540336 1.269505 0.083830
-0.534906 1.273237 0.083214
-0.529536 1.277163 0.082607
-0.523835 1.280336 0.081946
-0.518548 1.284554 0.081355
-0.516594 1.297132 0.081331
-0.511621 1.302360 0.080802
-0.505593 1.304957 0.080097
-0.500998 1.311278 0.079641
-0.497097 1.319529 0.079310
-0.491844 1.324320 0.078754
-0.486632 1.329279 0.078211
-0.481758 1.335229 0.077735
-0.476845 1.341159 0.077259
-0.472645 1.349200 0.076917
-0.467818 1.355590 0.076474
-0.463121 1.362466 0.076064
-0.457475 1.366646 0.075494
-0.452114 1.371725 0.074983
-0.446635 1.376512 0.074461
-0.441824 1.383435 0.074068
-0.437832 1.393086 0.073837
-0.432185 1.397637 0.073314
-0.426784 1.403052 0.072846
-0.421127 1.407709 0.072341
-0.416136 1.414684 0.071971
-0.411042 1.421453 0.071592
-0.405563 1.427024 0.071153
-0.400569 1.434432 0.070817
-0.395042 1.440084 0.070390
-0.389370 1.445318 0.069947
-0.383746 1.450841 0.069523
-0.377757 1.455087 0.069038
-0.372201 1.461101 0.068650
-0.366665 1.467345 0.068278
-0.360656 1.471833 0.067821
-0.354593 1.476192 0.067363
-0.349180 1.483397 0.067051
-0.344495 1.493968 0.066908
-0.338731 1.500153 0.066551
-0.333099 1.507118 0.066234
-0.328229 1.517825 0.066100
-0.321871 1.521929 0.065651
-0.314897 1.523176 0.065074
-0.308688 1.528180 0.064678
-0.302807 1.535007 0.064371
-0.298213 1.548755 0.064382
-0.292447 1.556909 0.064137
-0.286304 1.563357 0.063816
-0.279840 1.568280 0.063429
-0.273883 1.576306 0.063183
-0.268087 1.585663 0.062995
-0.262598 1.597353 0.062909
-0.256802 1.607739 0.062765
-0.250687 1.616630 0.062556
-0.244158 1.623262 0.062252
-0.237853 1.631780 0.062028
-0.231757 1.642281 0.061887
-0.225672 1.653515 0.061774
-0.219064 1.661518 0.061528
-0.212689 1.671866 0.061377
-0.205300 1.674669 0.060922
-0.197034 1.670193 0.060180
-0.188734 1.664981 0.059418
-0.182496 1.678249 0.059388
-0.179508 1.723892 0.060613
-0.171899 1.727219 0.060183
-0.165891 1.747713 0.060411
-0.158392 1.753696 0.060082
-0.150512 1.755811 0.059609
-0.143193 1.765039 0.059404
-0.135785 1.774168 0.059195
-0.129512 1.800267 0.059606
-0.122241 1.815001 0.059593
-0.114279 1.820750 0.059252
-0.106981 1.838876 0.059354
-0.098414 1.836185 0.058713
-0.090614 1.848721 0.058613
-0.082825 1.864088 0.058608
-0.074838 1.877951 0.058546
-0.066522 1.885939 0.058280
-0.058079 1.892070 0.057951
-0.049697 1.902725 0.057774
-0.041131 1.909178 0.057456
-0.032288 1.902169 0.056693
-0.023416 1.886933 0.055667
-0.015155 1.938867 0.056842
-0.006329 1.954067 0.056806
0.002642 1.971636 0.056842
0.011631 1.967956 0.056198
0.020773 1.980775 0.056080
0.030136 1.999931 0.056157
0.039392 2.005335 0.055803
0.048814 2.015279 0.055591
0.058216 2.021472 0.055263
0.067590 2.025111 0.054860
0.077035 2.029673 0.054487
0.086628 2.036621 0.054187
0.096257 2.042914 0.053869
0.106033 2.050842 0.053601
0.115686 2.055308 0.053233
0.125581 2.062940 0.052959
0.135546 2.070506 0.052685
0.145539 2.077424 0.052394
0.155457 2.082448 0.052051
0.165277 2.085605 0.051660
0.175534 2.093488 0.051403
0.185423 2.096389 0.051012
0.195491 2.100833 0.050668
0.205183 2.100994 0.050212
0.214703 2.099411 0.049715
0.223886 2.094777 0.049145
0.233187 2.091489 0.048617
0.242561 2.089011 0.048119
0.251658 2.084373 0.047572
0.260855 2.080784 0.047061
0.269862 2.075927 0.046525
0.278849 2.071175 0.046001
0.287681 2.065553 0.045463
0.296434 2.059659 0.044928
0.304495 2.049451 0.044296
0.312558 2.039779 0.043688
0.321242 2.034479 0.043197
0.330175 2.030906 0.042758
0.338949 2.026495 0.042307
0.347402 2.020390 0.041824
0.354583 2.007387 0.041190
0.362034 1.996438 0.040615
0.372003 1.999323 0.040375
0.380791 1.995846 0.039994
0.388430 1.986627 0.039491
0.397487 1.984736 0.039167
0.406569 1.982956 0.038855
0.414712 1.976721 0.038451
0.422216 1.967713 0.037996
0.429593 1.958413 0.037547
0.437631 1.952317 0.037179
0.445535 1.945788 0.036814
0.453534 1.939816 0.036471
0.461357 1.933243 0.036126
0.469636 1.928669 0.035836
0.478713 1.927338 0.035627
0.485451 1.916798 0.035230
0.492371 1.907238 0.034866
0.499877 1.900122 0.034566
0.507219 1.892540 0.034267
0.514592 1.885220 0.033985
0.522064 1.878395 0.033725
0.530139 1.873796 0.033523
0.537879 1.868083 0.033308
0.545711 1.862751 0.033112
0.552808 1.855033 0.032877
0.560207 1.848436 0.032676
0.568438 1.844604 0.032543
0.574501 1.833926 0.032278
0.584393 1.835367 0.032275
0.589051 1.820631 0.031945
0.587565 1.787736 0.031244
0.596775 1.787450 0.031233
0.607076 1.790242 0.031296
0.614417 1.784325 0.031184
0.620112 1.773813 0.030984
0.620669 1.749178 0.030494
0.627508 1.742422 0.030385
0.635730 1.739509 0.030361
0.643830 1.736257 0.030335
0.650865 1.730205 0.030254
0.656137 1.719666 0.030081
0.663240 1.714022 0.030012
0.670406 1.708621 0.029949
0.676651 1.701012 0.029838
0.682266 1.692007 0.029695
0.688548 1.684805 0.029586
0.694860 1.677830 0.029476
0.701948 1.672839 0.029402
0.708678 1.667125 0.029304
0.715577 1.661936 0.029206
0.720906 1.653324 0.029024
0.727701 1.648227 0.028902
0.733903 1.641972 0.028740
0.740942 1.637743 0.028602
0.748259 1.634272 0.028461
0.751867 1.623030 0.028134
0.758190 1.617860 0.027912
0.765611 1.615197 0.027718
0.770375 1.607217 0.027386
0.776787 1.602896 0.027101
0.783205 1.598811 0.026793
0.788506 1.592723 0.026412
0.794080 1.587455 0.026016
0.800125 1.583376 0.025612
0.804763 1.576824 0.025125
0.809326 1.570432 0.024609
0.816067 1.568485 0.024145
0.824068 1.569138 0.023696
0.829240 1.564692 0.023114
0.832099 1.556244 0.022425
-0.653754 1.146367 0.085386
-0.646700 1.143633 0.084941
-0.643753 1.148250 0.085050
-0.640611 1.152736 0.085109
-0.637528 1.157546 0.085156
-0.635338 1.164201 0.085310
-0.628696 1.162947 0.084799
-0.627186 1.171292 0.085008
-0.622236 1.173490 0.084697
-0.618678 1.178475 0.084566
-0.614794 1.183046 0.084367
-0.610396 1.186819 0.084072
-0.606927 1.192577 0.083894
-0.602714 1.197074 0.083588
-0.599690 1.204113 0.083442
-0.595087 1.208196 0.083045
-0.591509 1.214515 0.082785
-0.585600 1.216227 0.082161
-0.580120 1.218907 0.081587
-0.575136 1.222724 0.081076
-0.571641 1.229828 0.080781
-0.567126 1.234910 0.080322
-0.564399 1.244028 0.080129
-0.558896 1.247217 0.079506
-0.553761 1.251296 0.078933
-0.548563 1.255309 0.078347
-0.544935 1.263007 0.078000
-0.541014 1.270181 0.077606
-0.535883 1.274643 0.077025
-0.530179 1.277801 0.076355
-0.525219 1.282790 0.075801
-0.520566 1.288607 0.075298
-0.517459 1.298369 0.075040
-0.511587 1.301346 0.074352
-0.505869 1.304727 0.073693
-0.501385 1.311331 0.073232
-0.497604 1.319894 0.072890
-0.492345 1.324675 0.072319
-0.486598 1.328184 0.071677
-0.480831 1.331654 0.071037
-0.476770 1.339901 0.070679
-0.472565 1.347901 0.070307
-0.467705 1.354168 0.069837
-0.462542 1.359652 0.069327
-0.457380 1.365215 0.068826
-0.452277 1.371035 0.068343
-0.447029 1.376507 0.067845
-0.441583 1.381447 0.067324
-0.437065 1.389383 0.066966
-0.432494 1.397320 0.066611
-0.427082 1.402682 0.066125
-0.421312 1.406945 0.065588
-0.415695 1.411779 0.065086
-0.411423 1.421306 0.064825
-0.406415 1.428511 0.064450
-0.400560 1.432862 0.063937
-0.394999 1.438352 0.063486
-0.389889 1.445614 0.063126
-0.383823 1.449469 0.062605
-0.377751 1.453360 0.062093
-0.372517 1.460583 0.061743
-0.367074 1.467172 0.061366
-0.361101 1.471790 0.060902
-0.355609 1.478503 0.060539
-0.350102 1.485342 0.060184
-0.345591 1.496688 0.060032
-0.339114 1.499775 0.059516
-0.332533 1.502448 0.058988
-0.327962 1.514408 0.058867
-0.322156 1.521020 0.058515
-0.315569 1.524104 0.058017
-0.309098 1.527832 0.057551
-0.303132 1.534206 0.057200
-0.298170 1.546018 0.057074
-0.292828 1.556333 0.056886
-0.286646 1.562539 0.056532
-0.280690 1.570271 0.056240
-0.274800 1.578725 0.055979
-0.268636 1.585965 0.055670
-0.263479 1.599655 0.055613
-0.257356 1.608056 0.055349
-0.251005 1.615430 0.055046
-0.244466 1.621944 0.054712
-0.238395 1.632014 0.054512
-0.231734 1.638518 0.054179
-0.225324 1.647236 0.053928
-0.219843 1.663530 0.053952
-0.213009 1.670348 0.053630
-0.205742 1.674085 0.053200
-0.197101 1.666441 0.052371
-0.189661 1.668679 0.051898
-0.183332 1.681250 0.051786
-0.179379 1.717659 0.052486
-0.171904 1.722047 0.052082
-0.165791 1.741150 0.052174
-0.159292 1.757872 0.052180
-0.151581 1.762195 0.051771
-0.144010 1.768679 0.051435
-0.137333 1.787579 0.051501
-0.129948 1.798996 0.051320
-0.122717 1.814221 0.051257
-0.114850 1.821452 0.050939
-0.107216 1.833795 0.050780
-0.099241 1.841823 0.050485
-0.091207 1.850080 0.050196
-0.083646 1.870743 0.050282
-0.075278 1.875711 0.049890
-0.067001 1.884534 0.049613
-0.058532 1.889638 0.049227
-0.050328 1.906815 0.049193
-0.042081 1.929374 0.049308
-0.033275 1.930523 0.048805
-0.015738 1.947024 0.048205
-0.006884 1.965904 0.048199
0.002094 1.960012 0.047508
0.011051 1.959066 0.046958
0.020121 1.969012 0.046706
0.029442 1.989104 0.046723
0.038808 2.002261 0.046550
0.048297 2.015428 0.046375
0.057736 2.022789 0.046048
0.067097 2.025833 0.045611
0.076522 2.029734 0.045199
0.086114 2.036631 0.044864
0.095791 2.043893 0.044540
0.105417 2.048876 0.044160
0.115071 2.053492 0.043774
0.125289 2.066467 0.043591
0.135165 2.072432 0.043240
0.145029 2.077394 0.042868
0.154889 2.081637 0.042481
0.164978 2.088173 0.042151
0.174829 2.091133 0.041741
0.184831 2.095407 0.041364
0.194977 2.100725 0.041015
0.204746 2.101644 0.040571
0.214008 2.097525 0.040021
0.223237 2.093370 0.039479
0.232649 2.091115 0.038985
0.242009 2.088514 0.038490
0.251351 2.085883 0.038002
0.260426 2.081264 0.037480
0.269377 2.075949 0.036952
0.278311 2.070789 0.036436
0.287582 2.068288 0.035982
0.295627 2.057431 0.035368
0.303242 2.044301 0.034719
0.312620 2.043272 0.034322
0.321544 2.039365 0.033875
0.330266 2.034359 0.033416
0.338841 2.028676 0.032954
0.346738 2.019306 0.032430
0.353815 2.005742 0.031838
0.361072 1.993771 0.031288
0.370581 1.994288 0.030982
0.379962 1.994016 0.030670
0.388387 1.988817 0.030276
0.396907 1.984233 0.029902
0.405586 1.980525 0.029555
0.414532 1.978140 0.029241
0.422469 1.971097 0.028853
0.429331 1.959401 0.028395
0.437164 1.952388 0.028031
0.445143 1.946187 0.027692
0.452869 1.939059 0.027347
0.461751 1.936904 0.027099
0.470897 1.935793 0.026879
0.478267 1.927527 0.026547
0.484321 1.914314 0.026144
0.492542 1.909802 0.025898
0.500415 1.904027 0.025643
0.506826 1.892937 0.025310
0.515635 1.890834 0.025137
0.523272 1.884504 0.024905
0.530337 1.876273 0.024653
0.538362 1.871504 0.024469
0.542543 1.853778 0.024085
0.552669 1.856291 0.024041
0.560631 1.851519 0.023888
0.568074 1.845114 0.023720
0.580997 1.856122 0.023842
0.579885 1.822985 0.023264
0.591171 1.828737 0.023321
0.596455 1.816098 0.023092
0.599831 1.798071 0.022785
0.607411 1.792759 0.022691
0.614248 1.785354 0.022572
0.619042 1.772270 0.022370
0.619447 1.747214 0.021982
0.626869 1.742085 0.021920
0.634845 1.738506 0.021888
0.643108 1.735696 0.021874
0.650187 1.729755 0.021814
0.656147 1.720989 0.021711
0.662541 1.713497 0.021630
0.669105 1.706565 0.021560
0.675656 1.699719 0.021490
0.681222 1.690580 0.021381
0.687862 1.684234 0.021315
0.694231 1.677368 0.021235
0.701011 1.671617 0.021168
0.706644 1.663319 0.021051
0.713063 1.657030 0.020958
0.721331 1.655098 0.020925
0.727206 1.647861 0.020792
0.734219 1.643347 0.020689
0.741790 1.640202 0.020591
0.747076 1.632244 0.020396
0.751174 1.621999 0.020145
0.757352 1.616461 0.019947
0.763986 1.612091 0.019744
0.771090 1.608894 0.019535
0.777378 1.604217 0.019274
0.781664 1.595725 0.018926
0.787883 1.591415 0.018613
0.794433 1.588000 0.018283
0.801349 1.585531 0.017935
0.806495 1.579850 0.017506
0.810757 1.572759 0.017024
0.817646 1.570980 0.016587
0.825584 1.571397 0.016145
0.832062 1.569279 0.015632
0.827525 1.547025 0.014814
-0.649435 1.137106 0.079194
-0.647609 1.143503 0.079437
-0.643370 1.145893 0.079340
-0.640948 1.151698 0.079462
-0.638715 1.158082 0.079589
-0.632978 1.158363 0.079221
-0.628783 1.161601 0.079038
-0.626259 1.168111 0.079058
-0.622825 1.173170 0.078934
-0.616680 1.173331 0.078417
-0.613971 1.180144 0.078349
-0.610318 1.185380 0.078131
-0.605796 1.189126 0.077775
-0.603680 1.197765 0.077733
-0.600693 1.204934 0.077554
-0.595543 1.207975 0.077057
-0.589565 1.209454 0.076429
-0.586389 1.216776 0.076178
-0.580348 1.218339 0.075513
-0.575506 1.222486 0.075004
-0.570749 1.226931 0.074497
-0.566305 1.232163 0.074026
-0.563480 1.241058 0.073776
-0.559479 1.247562 0.073355
-0.553865 1.250594 0.072699
-0.549104 1.255613 0.072160
-0.545167 1.262618 0.071737
-0.540317 1.267640 0.071182
-0.536311 1.274734 0.070746
-0.531088 1.279056 0.070138
-0.525889 1.283491 0.069533
-0.521298 1.289476 0.069019
-0.517221 1.296838 0.068581
