ply
format ascii 1.0
comment ---
element vertex 1674
property float x
property float y
property float z
element face 0
property list uchar uint vertex_indices
end_header
-0.510611 1.228659 -0.487588
-0.506628 1.237578 -0.491084
-0.500729 1.241592 -0.492612
-0.494741 1.245398 -0.494065
-0.489645 1.251671 -0.496520
-0.485340 1.260244 -0.499910
-0.479910 1.265820 -0.502102
-0.475245 1.273676 -0.505222
-0.469261 1.277851 -0.506869
-0.463402 1.282442 -0.508693
-0.457789 1.287833 -0.510848
-0.452553 1.294468 -0.513514
-0.447071 1.300474 -0.515937
-0.442239 1.308653 -0.519243
-0.436590 1.314399 -0.521580
-0.430674 1.319382 -0.523620
-0.424803 1.324611 -0.525768
-0.419637 1.332333 -0.528930
-0.413968 1.338520 -0.531483
-0.408428 1.345305 -0.534287
-0.402695 1.351570 -0.536892
-0.397444 1.359765 -0.540283
-0.392925 1.370929 -0.544880
-0.387568 1.379266 -0.548348
-0.380770 1.382261 -0.549674
-0.374621 1.387879 -0.552066
-0.368655 1.394390 -0.554827
-0.362271 1.399379 -0.556984
-0.356312 1.406304 -0.559931
-0.351833 1.419862 -0.565563
-0.346503 1.430200 -0.569907
-0.340959 1.439977 -0.574035
-0.334478 1.445805 -0.576578
-0.328881 1.456036 -0.580908
-0.321778 1.459385 -0.582468
-0.314045 1.459681 -0.582802
-0.305802 1.457316 -0.582067
-0.303132 1.484045 -0.593107
-0.299058 1.504592 -0.601661
-0.293116 1.515858 -0.606470
-0.286414 1.523363 -0.609767
-0.277338 1.517276 -0.607567
-0.275393 1.553999 -0.622722
-0.267649 1.556691 -0.624098
-0.259890 1.559401 -0.625488
-0.252405 1.564056 -0.627675
-0.247164 1.584470 -0.636268
-0.238085 1.578815 -0.634286
-0.231328 1.589922 -0.639120
-0.223754 1.595513 -0.641721
-0.216482 1.603921 -0.645476
-0.209677 1.616870 -0.651089
-0.201992 1.623217 -0.654025
-0.194311 1.630113 -0.657193
-0.186705 1.638319 -0.660903
-0.178967 1.645970 -0.664396
-0.171269 1.654779 -0.668371
-0.164144 1.670895 -0.675339
-0.156204 1.679236 -0.679144
-0.147900 1.683985 -0.681489
-0.139584 1.689159 -0.684016
-0.130947 1.690399 -0.684941
-0.122544 1.695384 -0.687405
-0.114008 1.698923 -0.689286
-0.106181 1.715964 -0.696708
-0.097742 1.724095 -0.700490
-0.089709 1.742983 -0.708698
-0.081475 1.761466 -0.716753
-0.072847 1.773900 -0.722338
-0.064221 1.790483 -0.729642
-0.055198 1.797725 -0.733116
-0.046121 1.805793 -0.736940
-0.036971 1.814335 -0.740969
-0.027648 1.814147 -0.741409
-0.018375 1.823281 -0.745702
-0.009010 1.829186 -0.748673
0.000393 1.830607 -0.749800
0.009818 1.832617 -0.751178
0.019256 1.834049 -0.752324
0.028852 1.842778 -0.756500
0.038450 1.847914 -0.759198
0.047899 1.846193 -0.759062
0.057218 1.841084 -0.757527
0.066562 1.837831 -0.756766
0.076014 1.837620 -0.757274
0.085239 1.832789 -0.755868
0.094477 1.828983 -0.754893
0.103110 1.815527 -0.749903
0.110082 1.778242 -0.734976
0.118378 1.765345 -0.730209
0.147753 1.788537 -0.741786
0.160612 1.828714 -0.759255
0.171956 1.848464 -0.768202
0.181842 1.851449 -0.770142
0.191427 1.851173 -0.770725
0.201149 1.852061 -0.771807
0.211190 1.855572 -0.774001
0.221002 1.856767 -0.775234
0.230759 1.857318 -0.776207
0.240288 1.855966 -0.776388
0.249562 1.852715 -0.775777
0.258424 1.846646 -0.773985
0.267403 1.841700 -0.772674
0.276194 1.835728 -0.770936
0.286196 1.837857 -0.772637
0.295599 1.835993 -0.772658
0.304758 1.832660 -0.772066
0.314189 1.831012 -0.772200
0.323678 1.829671 -0.772476
0.332441 1.824274 -0.771036
0.341465 1.820459 -0.770280
0.351052 1.819684 -0.770831
0.360452 1.817876 -0.770954
0.369194 1.812769 -0.769678
0.377665 1.806481 -0.767906
0.387730 1.807916 -0.769454
0.396622 1.803740 -0.768610
0.403359 1.789935 -0.763639
0.413383 1.791095 -0.765108
0.422258 1.787139 -0.764389
0.431845 1.786219 -0.764992
0.439874 1.778802 -0.762805
0.448146 1.772547 -0.761128
0.458893 1.776171 -0.763738
0.467357 1.770706 -0.762428
0.474933 1.761971 -0.759709
0.481302 1.748981 -0.755147
0.488240 1.738433 -0.751649
0.495945 1.730891 -0.749466
0.501852 1.717220 -0.744614
0.507921 1.704486 -0.740172
0.512990 1.688731 -0.734407
0.520234 1.680595 -0.731979
0.531793 1.686613 -0.735773
0.539733 1.680762 -0.734370
0.550878 1.685013 -0.737425
0.560052 1.682934 -0.737708
0.568574 1.678831 -0.737109
0.569607 1.652495 -0.726677
0.574366 1.637800 -0.721382
0.590410 1.655898 -0.730639
0.601485 1.659251 -0.733377
0.611142 1.658447 -0.734277
0.620096 1.655643 -0.734293
0.627811 1.649492 -0.732817
0.635077 1.642247 -0.730849
0.642647 1.635935 -0.729293
0.651755 1.633691 -0.729558
0.660988 1.631765 -0.729964
0.667728 1.623613 -0.727559
0.675110 1.617226 -0.725936
0.681506 1.608594 -0.723281
0.690050 1.605314 -0.723029
0.699520 1.604291 -0.723785
0.707163 1.599046 -0.722607
0.713699 1.591413 -0.720316
0.721027 1.585798 -0.718914
0.730907 1.586064 -0.720165
0.738506 1.581346 -0.719111
0.742395 1.568740 -0.714409
0.750367 1.565300 -0.713859
0.759923 1.565393 -0.714890
0.771599 1.570033 -0.717971
0.772245 1.551839 -0.710506
0.768799 1.525829 -0.699374
0.775014 1.520101 -0.697522
0.781729 1.515654 -0.696206
0.790146 1.514833 -0.696509
0.798253 1.513593 -0.696564
0.806706 1.513229 -0.696966
0.810193 1.503546 -0.692996
0.815330 1.497387 -0.690593
0.820719 1.492019 -0.688496
0.827970 1.490422 -0.688086
0.835041 1.488732 -0.687574
0.844191 1.491076 -0.688874
0.846400 1.481042 -0.684367
-0.701905 0.997845 -0.399219
-0.699830 1.002816 -0.401778
-0.697278 1.007260 -0.404095
-0.695430 1.013018 -0.406920
-0.684354 1.004410 -0.403841
-0.688026 1.019320 -0.410348
-0.684836 1.023578 -0.412468
-0.680818 1.026702 -0.414090
-0.682138 1.038756 -0.419344
-0.676757 1.040081 -0.420165
-0.671537 1.041822 -0.421123
-0.666694 1.044350 -0.422371
-0.664818 1.052089 -0.425730
-0.660736 1.056296 -0.427606
-0.658291 1.063530 -0.430697
-0.653504 1.066899 -0.432169
-0.648217 1.069536 -0.433313
-0.644282 1.074729 -0.435480
-0.639366 1.078325 -0.436966
-0.634696 1.082510 -0.438670
-0.631595 1.089746 -0.441607
-0.628035 1.096329 -0.444254
-0.623631 1.101496 -0.446299
-0.619378 1.107095 -0.448506
-0.615056 1.112705 -0.450701
-0.610646 1.118285 -0.452869
-0.604627 1.120796 -0.453765
-0.601091 1.128356 -0.456725
-0.596495 1.133926 -0.458858
-0.591907 1.139626 -0.461037
-0.586945 1.144654 -0.462934
-0.581817 1.149421 -0.464720
-0.578139 1.157376 -0.467810
-0.572519 1.161268 -0.469233
-0.566958 1.165335 -0.470727
-0.561761 1.170261 -0.472573
-0.558117 1.178768 -0.475888
-0.553075 1.184234 -0.477959
-0.547697 1.188995 -0.479745
-0.542104 1.193303 -0.481350
-0.537423 1.199835 -0.483869
-0.532998 1.207091 -0.486690
-0.527912 1.212846 -0.488903
-0.522859 1.218766 -0.491190
-0.516650 1.221844 -0.492322
-0.511410 1.227414 -0.494480
-0.506810 1.234729 -0.497360
-0.501263 1.239671 -0.499277
-0.495561 1.244254 -0.501057
-0.490414 1.250401 -0.503484
-0.486034 1.258776 -0.506829
-0.480894 1.265184 -0.509380
-0.475172 1.270040 -0.511307
-0.469939 1.276379 -0.513849
-0.464280 1.281578 -0.515935
-0.459422 1.289263 -0.519045
-0.453700 1.294477 -0.521156
-0.448207 1.300490 -0.523603
-0.442795 1.306874 -0.526212
-0.437187 1.312763 -0.528628
-0.431201 1.317535 -0.530598
-0.425339 1.322802 -0.532780
-0.420287 1.330918 -0.536135
-0.414861 1.337959 -0.539061
-0.408531 1.341997 -0.540770
-0.404281 1.353558 -0.545561
-0.398726 1.360717 -0.548565
-0.393096 1.367796 -0.551546
-0.387176 1.373973 -0.554168
-0.381455 1.381092 -0.557185
-0.375868 1.388954 -0.560515
-0.369315 1.393166 -0.562364
-0.363394 1.400088 -0.565330
-0.359651 1.416420 -0.572152
-0.353252 1.421957 -0.574571
-0.347581 1.430880 -0.578385
-0.341614 1.438804 -0.581800
-0.335201 1.444969 -0.584504
-0.328871 1.451754 -0.587472
-0.323100 1.461517 -0.591669
-0.315245 1.461335 -0.591802
-0.306730 1.457702 -0.590528
-0.302752 1.477584 -0.598900
-0.298732 1.498263 -0.607612
-0.293072 1.510951 -0.613059
-0.285749 1.514836 -0.614904
-0.278982 1.522146 -0.618163
-0.273087 1.535099 -0.623750
-0.267672 1.551801 -0.630888
-0.259619 1.552538 -0.631476
-0.252709 1.560859 -0.635189
-0.245817 1.569819 -0.639175
-0.239983 1.586910 -0.646517
-0.231830 1.588041 -0.647300
-0.224114 1.592553 -0.649482
-0.217376 1.605188 -0.655020
-0.210141 1.614670 -0.659270
-0.202166 1.618479 -0.661188
-0.194849 1.628558 -0.665703
-0.187231 1.636666 -0.669414
-0.179874 1.648139 -0.674525
-0.171971 1.655004 -0.677741
-0.164640 1.668915 -0.683881
-0.156669 1.676883 -0.687573
-0.148244 1.680114 -0.689312
-0.139373 1.677783 -0.688755
-0.131443 1.688477 -0.693602
-0.122949 1.692086 -0.695520
-0.114851 1.702800 -0.700396
-0.107095 1.721612 -0.708647
-0.099196 1.741230 -0.717247
-0.090957 1.757580 -0.724504
-0.082252 1.766367 -0.728628
-0.073509 1.776476 -0.733313
-0.064405 1.777970 -0.734420
-0.055411 1.784340 -0.737567
-0.046382 1.792052 -0.741282
-0.037267 1.799064 -0.744716
-0.028084 1.806305 -0.748256
-0.018825 1.812848 -0.751514
-0.009500 1.818797 -0.754533
-0.000138 1.819710 -0.755455
0.009220 1.819045 -0.755722
0.018698 1.827049 -0.759630
0.028211 1.832652 -0.762542
0.037739 1.836491 -0.764723
0.047262 1.838757 -0.766253
0.056717 1.838269 -0.766634
0.066180 1.838010 -0.767118
0.075728 1.839657 -0.768412
0.085096 1.837211 -0.767990
0.094319 1.832435 -0.766591
0.103613 1.829579 -0.766008
0.113021 1.828860 -0.766332
0.122077 1.823050 -0.764513
0.131871 1.827887 -0.767202
0.141066 1.824453 -0.766401
0.151334 1.834081 -0.771141
0.161984 1.846824 -0.777216
0.171710 1.848293 -0.778526
0.181135 1.846488 -0.778455
0.190606 1.845194 -0.778610
0.200117 1.844293 -0.778941
0.209605 1.843165 -0.779184
0.219395 1.844558 -0.780512
0.229310 1.846745 -0.782190
0.238515 1.843171 -0.781420
0.247525 1.838311 -0.780108
0.256340 1.832296 -0.778310
0.265060 1.825947 -0.776375
0.274460 1.824459 -0.776530
0.284788 1.828944 -0.779260
0.293936 1.825665 -0.778670
0.303210 1.823234 -0.778455
0.312317 1.819855 -0.777843
0.321683 1.818034 -0.777911
0.330074 1.810798 -0.775656
0.339072 1.807116 -0.774943
0.348650 1.806558 -0.775590
0.358637 1.807988 -0.777112
0.367296 1.802628 -0.775707
0.376241 1.798796 -0.774975
0.385688 1.797399 -0.775311
0.395435 1.797332 -0.776240
0.403374 1.788996 -0.773584
0.410350 1.776687 -0.769204
0.420664 1.779151 -0.771273
0.428906 1.772673 -0.769454
0.436975 1.765631 -0.767397
0.447317 1.767900 -0.769428
0.456547 1.765563 -0.769458
0.465163 1.760823 -0.768447
0.468585 1.736526 -0.758845
0.470434 1.707252 -0.747039
0.481169 1.711230 -0.749880
0.487894 1.700655 -0.746315
0.496997 1.698651 -0.746544
0.504572 1.691359 -0.744445
0.509502 1.675321 -0.738473
0.517494 1.669839 -0.737187
0.526313 1.667102 -0.737130
0.537623 1.672258 -0.740602
0.547640 1.673067 -0.742156
0.558481 1.676254 -0.744790
0.555810 1.638426 -0.729080
0.576755 1.642892 -0.733524
0.589918 1.652566 -0.739116
0.600439 1.654362 -0.741184
0.609311 1.651413 -0.741122
0.617279 1.645987 -0.739945
0.625377 1.640990 -0.738961
0.632176 1.632618 -0.736445
0.641022 1.629762 -0.736425
0.649774 1.626678 -0.736300
0.656865 1.619420 -0.734267
0.665586 1.616388 -0.734150
0.672273 1.608400 -0.731757
0.679565 1.602073 -0.730105
0.687306 1.596976 -0.728998
0.695742 1.593650 -0.728684
0.704377 1.590876 -0.728604
0.712372 1.586727 -0.727866
0.718093 1.577577 -0.724791
0.724796 1.570900 -0.722821
0.733511 1.568882 -0.722970
0.744065 1.570980 -0.724993
0.751200 1.565768 -0.723589
0.760875 1.566167 -0.724748
0.767840 1.560989 -0.723269
0.774276 1.554962 -0.721345
0.782081 1.552013 -0.720802
0.789788 1.549078 -0.720212
0.791081 1.533544 -0.713678
0.799150 1.531918 -0.713582
0.802545 1.521360 -0.709247
0.811738 1.522428 -0.710295
0.815444 1.513157 -0.706436
0.812639 1.491928 -0.696902
0.820557 1.491446 -0.697036
0.827952 1.490206 -0.696755
0.833923 1.486576 -0.695289
0.841754 1.486614 -0.695487
0.861813 1.508975 -0.706115
-0.698282 0.991369 -0.402513
-0.701857 1.004951 -0.408674
-0.699869 1.010231 -0.411382
-0.693985 1.009626 -0.411624
-0.687337 1.007942 -0.411385
-0.690000 1.021200 -0.417311
-0.684473 1.021659 -0.417895
-0.686312 1.034200 -0.423468
-0.680312 1.034274 -0.423827
-0.676185 1.037571 -0.425491
-0.665830 1.030673 -0.422877
-0.667653 1.044249 -0.428757
-0.666793 1.053647 -0.432867
-0.663081 1.058444 -0.435027
-0.658739 1.062351 -0.436786
-0.654277 1.066224 -0.438499
-0.650011 1.070612 -0.440399
-0.644962 1.073772 -0.441758
-0.640204 1.077598 -0.443368
-0.635962 1.082514 -0.445409
-0.631033 1.086324 -0.446965
-0.626936 1.091822 -0.449203
-0.623281 1.098319 -0.451837
-0.618827 1.103464 -0.453889
-0.614705 1.109392 -0.456251
-0.611119 1.116521 -0.459098
-0.606834 1.122440 -0.461428
-0.601970 1.127332 -0.463318
-0.596551 1.131202 -0.464772
-0.591741 1.136401 -0.466771
-0.587512 1.142914 -0.469311
-0.583284 1.149559 -0.471901
-0.578296 1.154708 -0.473864
-0.573046 1.159374 -0.475623
-0.567832 1.164191 -0.477444
-0.562796 1.169472 -0.479458
-0.557718 1.174739 -0.481466
-0.553670 1.182437 -0.484486
-0.548359 1.187349 -0.486352
-0.543272 1.192848 -0.488465
-0.538051 1.198106 -0.490483
-0.533487 1.205021 -0.493193
-0.529106 1.212501 -0.496143
-0.523430 1.216891 -0.497817
-0.517858 1.221586 -0.499626
-0.512479 1.226827 -0.501667
-0.507035 1.231965 -0.503674
-0.501981 1.238201 -0.506144
-0.496254 1.242733 -0.507916
-0.491281 1.249363 -0.510566
-0.486497 1.256634 -0.513489
-0.481363 1.263060 -0.516072
-0.476208 1.269538 -0.518685
-0.470392 1.274218 -0.520564
-0.464946 1.280050 -0.522929
-0.459879 1.287119 -0.525816
-0.454398 1.293074 -0.528251
-0.448850 1.298931 -0.530656
-0.443551 1.305686 -0.533442
-0.437813 1.311178 -0.535715
-0.431719 1.315614 -0.537562
-0.426556 1.323214 -0.540727
-0.421546 1.331518 -0.544194
-0.415658 1.337020 -0.546512
-0.410575 1.345466 -0.550057
-0.404830 1.351780 -0.552731
-0.398990 1.357911 -0.555338
-0.392906 1.363291 -0.557645
-0.387827 1.372611 -0.561593
-0.381993 1.379307 -0.564464
-0.377459 1.391335 -0.569554
-0.372018 1.400129 -0.573314
-0.366068 1.407128 -0.576342
-0.359778 1.412927 -0.578881
-0.354568 1.423551 -0.583431
-0.348636 1.431404 -0.586841
-0.341976 1.436270 -0.589024
-0.335460 1.441953 -0.591554
-0.329555 1.450722 -0.595374
-0.323570 1.459467 -0.599194
-0.316139 1.461414 -0.600202
-0.308325 1.461436 -0.600419
-0.302399 1.471255 -0.604713
-0.299985 1.500392 -0.617046
-0.292660 1.503995 -0.618779
-0.286941 1.516858 -0.624371
-0.279874 1.522530 -0.626984
-0.272214 1.524910 -0.628234
-0.265912 1.535808 -0.633039
-0.259332 1.545563 -0.637379
-0.252931 1.557093 -0.642468
-0.249326 1.588547 -0.655875
-0.240524 1.585242 -0.654802
-0.232301 1.585896 -0.655386
-0.224828 1.592269 -0.658365
-0.217780 1.602478 -0.662955
-0.210249 1.609466 -0.666209
-0.202290 1.613296 -0.668152
-0.195194 1.625216 -0.673487
-0.187334 1.630968 -0.676252
-0.180129 1.643741 -0.681964
-0.171881 1.646876 -0.683651
-0.164159 1.656099 -0.687898
-0.156574 1.667950 -0.693256
-0.148718 1.677837 -0.697802
-0.140216 1.680418 -0.699290
-0.132307 1.691726 -0.704452
-0.124374 1.704321 -0.710167
-0.115910 1.710150 -0.713048
-0.107780 1.722986 -0.718886
-0.100145 1.748083 -0.729900
-0.091429 1.754905 -0.733232
-0.082535 1.758940 -0.735399
-0.073626 1.763670 -0.737868
-0.064605 1.766180 -0.739408
-0.055535 1.767749 -0.740559
-0.046757 1.784097 -0.747962
-0.037634 1.788820 -0.750465
-0.028507 1.797571 -0.754681
-0.019264 1.801487 -0.756862
-0.009983 1.806202 -0.759389
-0.000678 1.805330 -0.759557
0.008629 1.805367 -0.760117
0.018011 1.810596 -0.762888
0.027514 1.819337 -0.767162
0.037013 1.824167 -0.769784
0.046571 1.829275 -0.772536
0.056019 1.829562 -0.773245
0.065455 1.829359 -0.773753
0.074938 1.830193 -0.774710
0.084405 1.830416 -0.775415
0.093784 1.828887 -0.775380
0.103146 1.827236 -0.775300
0.112631 1.827659 -0.776114
0.122128 1.828117 -0.776952
0.131522 1.827003 -0.777125
0.141294 1.830737 -0.779385
0.151639 1.840740 -0.784347
0.161337 1.842259 -0.785681
0.170974 1.842859 -0.786631
0.179966 1.836800 -0.784725
0.189246 1.833987 -0.784223
0.198549 1.831541 -0.783887
0.208068 1.831098 -0.784424
0.217777 1.832188 -0.785632
0.227493 1.833142 -0.786793
0.236821 1.830918 -0.786592
0.245974 1.827455 -0.785863
0.254839 1.822063 -0.784308
0.264204 1.820407 -0.784380
0.273984 1.821527 -0.785668
0.283198 1.818804 -0.785299
0.292668 1.817737 -0.785661
0.301445 1.812435 -0.784190
0.310640 1.809784 -0.783884
0.319230 1.803728 -0.782102
0.327498 1.796113 -0.779647
0.336325 1.791816 -0.778650
0.346314 1.793723 -0.780380
0.356093 1.794330 -0.781556
0.365920 1.795027 -0.782787
0.374468 1.789370 -0.781242
0.382729 1.782512 -0.779178
0.393042 1.785312 -0.781376
0.401534 1.779662 -0.779867
0.409799 1.773144 -0.777985
0.418330 1.767941 -0.776693
0.426681 1.762078 -0.775119
0.435566 1.758539 -0.774586
0.445093 1.757595 -0.775216
0.455183 1.758771 -0.776804
0.459210 1.736419 -0.767944
0.476059 1.656979 -0.736856
0.481619 1.643387 -0.731871
0.508021 1.668624 -0.745451
0.514473 1.658127 -0.741889
0.524625 1.659848 -0.743835
0.534292 1.659844 -0.745019
0.538409 1.642389 -0.738330
0.539364 1.615718 -0.727459
0.543641 1.599859 -0.721466
0.567382 1.642112 -0.741857
0.578767 1.646831 -0.745247
0.589018 1.648036 -0.747054
0.598705 1.647504 -0.748080
0.607440 1.644249 -0.747871
0.615172 1.638261 -0.746412
0.623259 1.633328 -0.745434
0.631853 1.629804 -0.745101
0.639360 1.623481 -0.743477
0.647393 1.618633 -0.742524
0.656366 1.616248 -0.742699
0.661805 1.605081 -0.738806
0.671102 1.603672 -0.739409
0.677975 1.596410 -0.737286
0.686376 1.592982 -0.736921
0.694857 1.589832 -0.736666
0.702619 1.585110 -0.735655
0.711577 1.583275 -0.735964
0.718318 1.576517 -0.733945
0.723220 1.565886 -0.730075
0.731339 1.562666 -0.729635
0.744357 1.570244 -0.734226
0.749987 1.561873 -0.731292
0.757252 1.557274 -0.730081
0.764744 1.553378 -0.729153
0.770658 1.546435 -0.726737
0.780036 1.546875 -0.727751
0.767283 1.502736 -0.707638
0.790427 1.531468 -0.721915
0.799234 1.531403 -0.722522
0.809117 1.533623 -0.724154
0.814946 1.528141 -0.722076
0.825578 1.532160 -0.724443
0.826233 1.517389 -0.717829
0.829734 1.508452 -0.713918
0.840645 1.513669 -0.716669
0.836689 1.491621 -0.706400
0.841195 1.485630 -0.703699
0.839100 1.468017 -0.695411
-0.701770 0.995816 -0.410299
-0.708215 1.013790 -0.418399
-0.699800 1.009099 -0.416979
-0.693652 1.008017 -0.417037
-0.689889 1.010820 -0.418692
-0.690103 1.020134 -0.423055
-0.688672 1.027099 -0.426400
-0.683888 1.028890 -0.427535
-0.680039 1.032373 -0.429348
-0.673623 1.031815 -0.429422
-0.670562 1.036953 -0.431866
-0.672113 1.050057 -0.437643
-0.666473 1.051333 -0.438391
-0.662378 1.055392 -0.440281
-0.658732 1.060412 -0.442547
-0.654990 1.065466 -0.444796
-0.650938 1.070170 -0.446866
-0.645862 1.073226 -0.448211
-0.641018 1.076843 -0.449765
-0.636079 1.080434 -0.451282
-0.630985 1.083875 -0.452710
-0.625604 1.086906 -0.453943
-0.623633 1.096485 -0.457924
-0.619001 1.101234 -0.459843
-0.615420 1.108151 -0.462660
-0.611322 1.114234 -0.465109
-0.607279 1.120580 -0.467653
-0.602304 1.125210 -0.469460
-0.596819 1.128910 -0.470862
-0.591968 1.133984 -0.472837
-0.588399 1.141829 -0.475973
-0.583797 1.147666 -0.478255
-0.578747 1.152658 -0.480176
-0.573742 1.157833 -0.482170
-0.568788 1.163205 -0.484246
-0.563872 1.168751 -0.486393
-0.559831 1.176352 -0.489407
-0.554988 1.182268 -0.491712
-0.549732 1.187323 -0.493656
-0.543734 1.190704 -0.494900
-0.538905 1.196887 -0.497326
-0.533925 1.202800 -0.499644
-0.529794 1.210881 -0.502878
-0.524440 1.216075 -0.504904
-0.518947 1.220988 -0.506819
-0.513497 1.226069 -0.508812
-0.508812 1.233199 -0.511673
-0.503253 1.238155 -0.513628
-0.497864 1.243625 -0.515807
-0.493689 1.252470 -0.519412
-0.487482 1.255897 -0.520751
-0.482738 1.263439 -0.523827
-0.477027 1.268377 -0.525819
-0.471285 1.273295 -0.527811
-0.465520 1.278213 -0.529814
-0.460103 1.284242 -0.532292
-0.454701 1.290430 -0.534847
-0.449237 1.296542 -0.537380
-0.444244 1.304258 -0.540596
-0.438146 1.308619 -0.542414
-0.432469 1.314413 -0.544844
-0.427693 1.323312 -0.548585
-0.422354 1.330545 -0.551638
-0.417595 1.339952 -0.555613
-0.411499 1.344949 -0.557749
-0.405173 1.349230 -0.559595
-0.399191 1.354838 -0.562007
-0.393262 1.360783 -0.564570
-0.388231 1.370273 -0.568631
-0.383223 1.380154 -0.572866
-0.377972 1.389408 -0.576849
-0.372660 1.398726 -0.580868
-0.366230 1.403769 -0.583104
-0.359959 1.409625 -0.585690
-0.355106 1.421744 -0.590917
-0.348910 1.428449 -0.593880
-0.342234 1.433230 -0.596045
-0.335775 1.439162 -0.598703
-0.330181 1.449374 -0.603170
-0.323717 1.455825 -0.606065
-0.317011 1.461331 -0.608573
-0.308967 1.460259 -0.608322
-0.302725 1.468447 -0.611976
-0.300258 1.497219 -0.624308
-0.293762 1.505365 -0.627967
-0.286682 1.510600 -0.630410
-0.280493 1.521274 -0.635154
-0.273477 1.527556 -0.638057
-0.266057 1.531667 -0.640053
-0.260061 1.545082 -0.645984
-0.253132 1.553163 -0.649675
-0.249675 1.585485 -0.663614
-0.240547 1.579863 -0.661539
-0.232760 1.583616 -0.663431
-0.225565 1.592113 -0.667338
-0.217996 1.598252 -0.670257
-0.209802 1.599672 -0.671187
-0.203323 1.615937 -0.678412
-0.195435 1.620915 -0.680867
-0.187596 1.626759 -0.683697
-0.180014 1.635669 -0.687837
-0.172409 1.645210 -0.692255
-0.164369 1.650945 -0.695067
-0.156875 1.663652 -0.700850
-0.149228 1.675976 -0.706482
-0.142033 1.695823 -0.715325
-0.134156 1.708791 -0.721257
-0.125206 1.707361 -0.721071
-0.116625 1.711701 -0.723349
-0.108368 1.722560 -0.728413
-0.100345 1.740091 -0.736336
-0.091459 1.742571 -0.737849
-0.082676 1.748126 -0.740684
-0.073851 1.753982 -0.743657
-0.064840 1.755706 -0.744873
-0.055956 1.762879 -0.748427
-0.047076 1.773665 -0.753538
-0.038033 1.780873 -0.757129
-0.028806 1.778017 -0.756417
-0.019690 1.788759 -0.761542
-0.010454 1.787664 -0.761600
-0.001207 1.791841 -0.763928
0.008068 1.794322 -0.765537
0.017408 1.799620 -0.768365
0.026754 1.802269 -0.770065
0.036208 1.808258 -0.773211
0.045720 1.814057 -0.776287
0.055318 1.820617 -0.779702
0.064602 1.817282 -0.778858
0.073794 1.812526 -0.777406
0.083116 1.811289 -0.777481
0.092517 1.811663 -0.778259
0.102264 1.817770 -0.781528
0.112030 1.823103 -0.784474
0.121554 1.824060 -0.785535
0.130991 1.823604 -0.785992
0.140568 1.824881 -0.787210
0.150626 1.831651 -0.790827
0.160515 1.835653 -0.793253
0.169615 1.830728 -0.791806
0.178659 1.825628 -0.790289
0.187731 1.821199 -0.789070
0.197124 1.820016 -0.789275
0.206670 1.820178 -0.790078
0.216217 1.820238 -0.790847
0.226283 1.824353 -0.793402
0.235907 1.824623 -0.794286
0.244893 1.820024 -0.793049
0.253711 1.814447 -0.791389
0.263237 1.814042 -0.792009
0.272894 1.814432 -0.792991
0.282161 1.812169 -0.792817
0.290704 1.805408 -0.790673
0.300289 1.805261 -0.791453
0.309191 1.800998 -0.790429
0.317926 1.795922 -0.789055
0.326054 1.787649 -0.786276
0.335281 1.785634 -0.786276
0.344599 1.784088 -0.786495
0.354386 1.784894 -0.787772
0.363459 1.781984 -0.787413
0.372214 1.777561 -0.786394
0.380831 1.772579 -0.785136
0.390105 1.770741 -0.785291
0.399655 1.770099 -0.785994
0.408489 1.766217 -0.785264
0.416674 1.759591 -0.783318
0.423756 1.748510 -0.779383
0.432990 1.746610 -0.779574
0.442696 1.746553 -0.780608
0.450410 1.738539 -0.778077
0.459428 1.735743 -0.777906
0.464583 1.718369 -0.771170
0.472647 1.712303 -0.769540
0.474969 1.685554 -0.758561
0.477190 1.659357 -0.747814
0.472427 1.609718 -0.726413
0.493255 1.586499 -0.719198
0.502966 1.588024 -0.721031
0.514817 1.596168 -0.725908
0.520957 1.586097 -0.722470
0.529238 1.582822 -0.722148
0.558124 1.641598 -0.750334
0.570158 1.648387 -0.754703
0.579080 1.645774 -0.754762
0.587679 1.642219 -0.754392
0.596817 1.640194 -0.754735
0.605262 1.636215 -0.754178
0.613412 1.631468 -0.753265
0.622047 1.628087 -0.752985
0.630172 1.623382 -0.752088
0.636717 1.614642 -0.749304
0.643762 1.607382 -0.747197
0.649213 1.596263 -0.743272
0.658857 1.595861 -0.744344
0.664536 1.585713 -0.740835
0.674405 1.585966 -0.742187
0.685495 1.589109 -0.744886
0.694942 1.588306 -0.745713
0.702570 1.583325 -0.744546
0.707007 1.571209 -0.739977
0.714871 1.567188 -0.739197
0.725151 1.568704 -0.741006
0.730240 1.558842 -0.737383
0.737078 1.553104 -0.735672
0.746011 1.552093 -0.736164
0.753769 1.548725 -0.735489
0.763314 1.549296 -0.736645
0.771646 1.547476 -0.736610
0.770949 1.527398 -0.727794
0.779996 1.527609 -0.728614
0.787880 1.525656 -0.728344
0.798772 1.529859 -0.730966
0.806103 1.527193 -0.730237
0.821095 1.539587 -0.736675
0.828298 1.537012 -0.735869
0.833124 1.530188 -0.732958
0.837244 1.522377 -0.729508
0.845440 1.522501 -0.729807
0.853707 1.522965 -0.730208
0.862872 1.525271 -0.731434
0.878559 1.539547 -0.738356
-0.710790 1.008743 -0.421724
-0.702291 1.003735 -0.420196
-0.700914 1.009838 -0.423354
-0.696442 1.011330 -0.424521
-0.695281 1.018201 -0.427948
-0.692438 1.022651 -0.430312
-0.687021 1.023180 -0.430972
-0.683549 1.026998 -0.433000
-0.678883 1.029068 -0.434248
-0.674880 1.032394 -0.435998
-0.671793 1.037429 -0.438446
-0.671918 1.048067 -0.443260
-0.665145 1.047347 -0.443176
-0.660276 1.049981 -0.444495
-0.657336 1.056104 -0.447277
-0.655561 1.064487 -0.450997
-0.651503 1.069112 -0.453074
-0.646261 1.071810 -0.454295
-0.641248 1.075057 -0.455722
-0.636408 1.078760 -0.457318
-0.632414 1.084165 -0.459618
-0.630393 1.093418 -0.463545
-0.625367 1.097266 -0.465130
-0.620143 1.100862 -0.466587
-0.615297 1.105299 -0.468385
-0.610788 1.110516 -0.470500
-0.606787 1.116874 -0.473088
-0.602503 1.122819 -0.475486
-0.598021 1.128506 -0.477761
-0.594007 1.135279 -0.480490
-0.589011 1.140164 -0.482402
-0.584092 1.145305 -0.484416
-0.579543 1.151333 -0.486804
-0.574592 1.156608 -0.488865
-0.569587 1.161857 -0.490912
-0.563934 1.165758 -0.492382
-0.561043 1.175908 -0.496521
-0.555441 1.180102 -0.498117
-0.550005 1.184726 -0.499897
-0.545338 1.191209 -0.502474
-0.539737 1.195585 -0.504155
-0.534134 1.200003 -0.505858
-0.530855 1.210141 -0.510005
-0.525431 1.215179 -0.511984
-0.519812 1.219792 -0.513788
-0.514759 1.225898 -0.516234
-0.509966 1.232775 -0.519016
-0.504757 1.238674 -0.521389
-0.500095 1.246125 -0.524431
-0.494395 1.250907 -0.526345
-0.489114 1.256898 -0.528782
-0.483300 1.261499 -0.530638
-0.478136 1.268000 -0.533310
-0.472242 1.272513 -0.535146
-0.466553 1.277685 -0.537273
-0.460838 1.282856 -0.539409
-0.455239 1.288463 -0.541740
-0.449878 1.294903 -0.544434
-0.444355 1.300964 -0.546979
-0.438736 1.306843 -0.549455
-0.433139 1.312909 -0.552021
-0.428113 1.320990 -0.555454
-0.422995 1.328970 -0.558854
-0.418411 1.338982 -0.563128
-0.412036 1.343036 -0.564880
-0.405767 1.347532 -0.566830
-0.399833 1.353333 -0.569345
-0.394960 1.363194 -0.573596
-0.389847 1.372463 -0.577606
-0.383936 1.378958 -0.580446
-0.378352 1.386918 -0.583921
-0.372571 1.394347 -0.587179
-0.366058 1.399015 -0.589273
-0.361610 1.412444 -0.595105
-0.355248 1.418208 -0.597686
-0.349008 1.424689 -0.600582
-0.343029 1.432562 -0.604081
-0.336768 1.439436 -0.607164
-0.330710 1.447526 -0.610776
-0.324956 1.457397 -0.615156
-0.317362 1.458627 -0.615864
-0.310068 1.461361 -0.617222
-0.303533 1.468108 -0.620300
-0.298864 1.485113 -0.627763
-0.292759 1.495122 -0.632254
-0.285692 1.500202 -0.634651
-0.280567 1.516799 -0.641975
-0.273712 1.523983 -0.645291
-0.267095 1.533014 -0.649406
-0.261870 1.551441 -0.657548
-0.255585 1.564040 -0.663211
-0.246733 1.559938 -0.661740
-0.240725 1.575563 -0.668718
-0.232783 1.578113 -0.670110
-0.225988 1.589513 -0.675301
-0.217976 1.592135 -0.676742
-0.210450 1.598909 -0.679970
-0.203976 1.615241 -0.687308
-0.195870 1.618327 -0.688974
-0.187412 1.618329 -0.689325
-0.179783 1.626451 -0.693170
-0.172770 1.641757 -0.700112
-0.165689 1.657940 -0.707445
-0.158370 1.673173 -0.714384
-0.150972 1.689264 -0.721704
-0.143627 1.708093 -0.730218
-0.134880 1.709822 -0.731378
-0.125876 1.707873 -0.730960
-0.116990 1.707475 -0.731216
-0.109131 1.725206 -0.739304
-0.100431 1.729920 -0.741786
-0.091890 1.739041 -0.746180
-0.082969 1.741091 -0.747529
-0.074072 1.744336 -0.749402
-0.065132 1.747168 -0.751104
-0.056128 1.748590 -0.752204
-0.047323 1.760029 -0.757654
-0.038337 1.767296 -0.761306
-0.029231 1.770442 -0.763182
-0.020081 1.771462 -0.764142
-0.010926 1.776955 -0.767055
-0.001722 1.780308 -0.769047
0.007532 1.785535 -0.771863
0.016734 1.782920 -0.771274
0.026108 1.790854 -0.775290
0.035498 1.795988 -0.778096
0.044967 1.801997 -0.781295
0.054416 1.805531 -0.783424
0.063711 1.804043 -0.783369
0.073081 1.804515 -0.784178
0.082307 1.801828 -0.783613
0.091897 1.806341 -0.786208
0.101460 1.809514 -0.788228
0.111103 1.813347 -0.790548
0.120465 1.812431 -0.790794
0.129439 1.806275 -0.788747
0.139246 1.811384 -0.791658
0.149312 1.818882 -0.795634
0.158940 1.820484 -0.797028
0.168175 1.817636 -0.796471
0.177026 1.811092 -0.794292
0.186671 1.812714 -0.795724
0.196105 1.812148 -0.796201
0.205511 1.811280 -0.796555
0.214836 1.809705 -0.796605
0.225056 1.815358 -0.799870
0.234971 1.818096 -0.801857
0.243575 1.810765 -0.799388
0.252556 1.806562 -0.798315
0.261682 1.803549 -0.797780
0.271446 1.804893 -0.799195
0.280656 1.802449 -0.798936
0.289790 1.799580 -0.798499
0.298748 1.795703 -0.797621
0.307909 1.793139 -0.797341
0.316226 1.785798 -0.794935
0.325225 1.782529 -0.794360
0.334115 1.778738 -0.793562
0.343459 1.777409 -0.793881
0.352206 1.772990 -0.792824
0.360904 1.768429 -0.791714
0.369745 1.764668 -0.790975
0.378797 1.761959 -0.790723
0.388196 1.760854 -0.791209
0.397620 1.759788 -0.791726
0.406538 1.756419 -0.791217
0.414207 1.747717 -0.788303
0.422669 1.742601 -0.787022
0.430062 1.733196 -0.783804
0.438965 1.730120 -0.783472
0.448544 1.729697 -0.784363
0.455355 1.718515 -0.780360
0.464853 1.717778 -0.781134
0.471791 1.707496 -0.777556
0.480805 1.704994 -0.777547
0.485157 1.685922 -0.769949
0.493886 1.682678 -0.769616
0.501994 1.677306 -0.768316
0.508883 1.667926 -0.765178
0.503249 1.617590 -0.743138
0.507778 1.601758 -0.736995
0.511956 1.585257 -0.730534
0.523367 1.591750 -0.734725
0.552533 1.652244 -0.764020
0.562501 1.652805 -0.765536
0.571166 1.649378 -0.765209
0.579149 1.643972 -0.763964
0.587214 1.638880 -0.762867
0.595253 1.633778 -0.761767
0.603886 1.630389 -0.761471
0.611548 1.624379 -0.759944
0.619335 1.618811 -0.758620
0.625298 1.608524 -0.755066
0.633487 1.604275 -0.754346
0.638649 1.592345 -0.749987
0.646845 1.588380 -0.749376
0.653902 1.581662 -0.747446
0.660177 1.573197 -0.744668
0.669428 1.572144 -0.745390
0.681781 1.578503 -0.749627
0.694357 1.585216 -0.754024
0.699693 1.575004 -0.750320
0.701663 1.557412 -0.743044
0.711093 1.557147 -0.744020
0.720766 1.557491 -0.745257
0.728896 1.554509 -0.744861
0.733015 1.542995 -0.740317
0.738465 1.534714 -0.737276
0.748364 1.536156 -0.738872
0.758463 1.538106 -0.740667
0.770749 1.544662 -0.744641
0.776576 1.538028 -0.742187
0.776351 1.519484 -0.733902
0.786007 1.521242 -0.735388
0.794231 1.520308 -0.735510
0.808390 1.531172 -0.741299
0.818069 1.533340 -0.742810
0.825498 1.531352 -0.742240
0.833242 1.530204 -0.742014
0.838309 1.524259 -0.739393
0.847095 1.525549 -0.740225
0.855576 1.526467 -0.740815
0.862590 1.524901 -0.740133
0.890260 1.560943 -0.757691
-0.700392 0.992031 -0.420556
-0.701826 1.002131 -0.425511
-0.698122 1.004555 -0.427138
-0.697945 1.012660 -0.431184
-0.694372 1.015680 -0.433008
-0.690102 1.017779 -0.434402
-0.688190 1.023821 -0.437467
-0.683266 1.025235 -0.438498
-0.679840 1.029248 -0.440619
-0.678374 1.036683 -0.444190
-0.674867 1.040994 -0.446373
-0.672685 1.047727 -0.449573
-0.667941 1.050377 -0.450966
-0.662331 1.051713 -0.451754
-0.658053 1.055483 -0.453566
-0.655588 1.062589 -0.456795
-0.651863 1.067721 -0.459134
-0.647076 1.071160 -0.460706
-0.641539 1.073405 -0.461728
-0.637613 1.078703 -0.464051
-0.635013 1.086617 -0.467484
-0.631712 1.093464 -0.470427
-0.626312 1.096571 -0.471720
-0.620751 1.099484 -0.472907
-0.615953 1.103963 -0.474754
-0.611065 1.108395 -0.476562
-0.606611 1.113804 -0.478778
-0.602470 1.119973 -0.481310
-0.599805 1.129272 -0.485187
-0.594627 1.133657 -0.486918
-0.589309 1.137843 -0.488553
-0.584908 1.144033 -0.491049
-0.580480 1.150295 -0.493570
-0.575427 1.155337 -0.495556
-0.570224 1.160139 -0.497435
-0.564896 1.164745 -0.499226
-0.559344 1.168919 -0.500829
-0.555431 1.176866 -0.504066
-0.550242 1.182032 -0.506099
-0.545719 1.188826 -0.508839
-0.540302 1.193625 -0.510719
-0.535807 1.200699 -0.513586
-0.531866 1.209247 -0.517094
-0.526120 1.213504 -0.518753
-0.520447 1.217987 -0.520516
-0.515484 1.224322 -0.523086
-0.510576 1.230905 -0.525769
-0.505730 1.237759 -0.528576
-0.500421 1.243505 -0.530913
-0.495141 1.249417 -0.533330
-0.489536 1.254530 -0.535411
-0.483980 1.259851 -0.537591
-0.478225 1.264688 -0.539571
-0.473151 1.271550 -0.542434
-0.467207 1.276000 -0.544266
-0.461056 1.279892 -0.545868
-0.455568 1.285827 -0.548361
-0.450242 1.292370 -0.551125
-0.444760 1.298559 -0.553746
-0.439621 1.305964 -0.556901
-0.434564 1.313806 -0.560255
-0.429258 1.321023 -0.563350
-0.423967 1.328460 -0.566550
-0.417953 1.333616 -0.568778
-0.412498 1.340822 -0.571899
-0.406251 1.345406 -0.573902
-0.401075 1.353952 -0.577621
-0.395898 1.362743 -0.581456
-0.390538 1.371114 -0.585121
-0.385029 1.379170 -0.588660
-0.379056 1.385661 -0.591536
-0.373060 1.392251 -0.594464
-0.366439 1.396488 -0.596389
-0.362849 1.413470 -0.603818
-0.355966 1.417094 -0.605499
-0.350511 1.427027 -0.609911
-0.344153 1.433311 -0.612760
-0.338500 1.443036 -0.617103
-0.332121 1.449758 -0.620161
-0.325603 1.456071 -0.623053
-0.318418 1.459352 -0.624645
-0.310789 1.460484 -0.625319
-0.303989 1.465895 -0.627849
-0.298463 1.478305 -0.633414
-0.293303 1.493345 -0.640127
-0.286544 1.500178 -0.643303
-0.279626 1.506425 -0.646235
-0.275214 1.527937 -0.655783
-0.268202 1.534722 -0.658970
-0.262726 1.551640 -0.666554
-0.255419 1.557591 -0.669401
-0.248427 1.566023 -0.673333
-0.240454 1.568079 -0.674510
-0.232978 1.573849 -0.677306
-0.225592 1.580668 -0.680567
-0.218296 1.588682 -0.684356
-0.212239 1.607458 -0.692829
-0.204462 1.613058 -0.695592
-0.195585 1.609266 -0.694281
-0.188751 1.624177 -0.701109
-0.181740 1.638770 -0.707812
-0.173320 1.640243 -0.708817
-0.167499 1.670159 -0.722217
-0.160000 1.684119 -0.728684
-0.151801 1.691145 -0.732141
-0.143833 1.702057 -0.737303
-0.135219 1.705411 -0.739179
-0.125447 1.691814 -0.733660
-0.116892 1.695706 -0.735783
-0.108527 1.703578 -0.739655
-0.100851 1.726277 -0.750023
-0.092145 1.731697 -0.752846
-0.083149 1.731376 -0.753165
-0.074103 1.729568 -0.752839
-0.065120 1.729117 -0.753114
-0.056213 1.731323 -0.754562
-0.047361 1.737007 -0.757543
-0.038649 1.754597 -0.765766
-0.029600 1.758296 -0.767899
-0.020515 1.762095 -0.770086
-0.011391 1.765470 -0.772095
-0.002229 1.769574 -0.774435
0.006953 1.771073 -0.775636
0.016213 1.777142 -0.778862
0.025386 1.775006 -0.778478
0.034819 1.784811 -0.783373
0.044253 1.791090 -0.786725
0.053532 1.790722 -0.787149
0.062847 1.791311 -0.788004
0.072077 1.789675 -0.787883
0.081982 1.802233 -0.794060
0.091380 1.802830 -0.794949
0.100752 1.802804 -0.795570
0.110006 1.800803 -0.795323
0.119027 1.795610 -0.793665
0.128520 1.797432 -0.795134
0.138061 1.799532 -0.796737
0.148007 1.806123 -0.800353
0.157565 1.807487 -0.801653
0.166585 1.802857 -0.800287
0.175874 1.801331 -0.800316
0.185358 1.801720 -0.801211
0.194997 1.803388 -0.802689
0.204435 1.803047 -0.803279
0.213753 1.801616 -0.803392
0.223025 1.799821 -0.803352
0.232193 1.797255 -0.802976
0.241815 1.798159 -0.804170
0.250969 1.795523 -0.803784
0.260096 1.792783 -0.803362
0.269484 1.791853 -0.803766
0.279159 1.792726 -0.804996
0.288044 1.788488 -0.803931
0.296543 1.782066 -0.801889
0.305451 1.778315 -0.801063
0.314662 1.776391 -0.801076
0.322821 1.768634 -0.798456
0.332295 1.768270 -0.799200
0.341286 1.765275 -0.798762
0.350097 1.761398 -0.797936
0.358348 1.754822 -0.795890
0.367438 1.752507 -0.795798
0.376931 1.752082 -0.796582
0.385529 1.747439 -0.795453
0.394868 1.746211 -0.795899
0.404506 1.746221 -0.796928
0.412049 1.737128 -0.793795
0.419721 1.728852 -0.791043
0.428505 1.725362 -0.790502
0.437141 1.721297 -0.789709
0.445651 1.716781 -0.788719
0.454667 1.714263 -0.788665
0.461809 1.704666 -0.785349
0.472278 1.707591 -0.787841
0.479174 1.697357 -0.784247
0.486279 1.688130 -0.781126
0.493618 1.679940 -0.778491
0.501938 1.675276 -0.777505
0.509359 1.667651 -0.775147
0.521572 1.675915 -0.780221
0.528429 1.666488 -0.777040
0.534199 1.653829 -0.772346
0.543177 1.651481 -0.772489
0.552364 1.649734 -0.772925
0.561241 1.647004 -0.772908
0.570078 1.644138 -0.772834
0.577645 1.637573 -0.771020
0.585740 1.632629 -0.769972
0.594039 1.628328 -0.769229
0.600218 1.618214 -0.765726
0.609125 1.615759 -0.765854
0.615632 1.606878 -0.762921
0.621969 1.597755 -0.759860
0.626277 1.583581 -0.754369
0.635761 1.583025 -0.755372
0.644540 1.580664 -0.755503
0.653830 1.579614 -0.756251
0.662243 1.576428 -0.755959
0.669399 1.570291 -0.754227
0.677364 1.566253 -0.753480
0.687040 1.566356 -0.754708
0.691545 1.554521 -0.750136
0.696274 1.543556 -0.745943
0.703449 1.538442 -0.744543
0.716487 1.546558 -0.749532
0.724201 1.542861 -0.748747
0.727199 1.529135 -0.743032
0.733366 1.522632 -0.740781
0.743373 1.524520 -0.742573
0.752432 1.524509 -0.743391
0.758847 1.519180 -0.741556
0.765816 1.515253 -0.740349
0.778072 1.522242 -0.744434
0.783860 1.516337 -0.742141
0.790310 1.512042 -0.740575
0.803223 1.520646 -0.745281
0.810786 1.518921 -0.744855
0.818347 1.517422 -0.744476
0.825121 1.514665 -0.743414
0.839427 1.526298 -0.749369
0.829137 1.492199 -0.732759
0.841954 1.501496 -0.737438
0.851048 1.504038 -0.738732
0.875776 1.535028 -0.753967
-0.710040 1.005970 -0.432532
-0.701928 1.001440 -0.431198
-0.697651 1.002913 -0.432445
-0.695629 1.008063 -0.435267
-0.695326 1.016132 -0.439336
-0.688733 1.014488 -0.439124
-0.689044 1.023993 -0.443762
-0.686096 1.028537 -0.446195
-0.680187 1.028470 -0.446570
-0.679087 1.036430 -0.450435
-0.674966 1.039654 -0.452185
-0.670082 1.041786 -0.453419
-0.668133 1.049034 -0.456869
-0.662752 1.050687 -0.457823
-0.659873 1.056791 -0.460702
-0.655988 1.061374 -0.462877
-0.652411 1.066690 -0.465343
-0.647706 1.070206 -0.466984
-0.643144 1.074141 -0.468778
-0.640422 1.081573 -0.472085
-0.636539 1.087108 -0.474528
-0.632289 1.092150 -0.476726
-0.627047 1.095497 -0.478151
-0.621432 1.098258 -0.479295
-0.618044 1.105392 -0.482345
-0.612648 1.108824 -0.483744
-0.607573 1.112986 -0.485446
-0.603678 1.119606 -0.488215
-0.599694 1.126214 -0.490963
-0.595093 1.131718 -0.493213
-0.590167 1.136679 -0.495212
-0.586633 1.144656 -0.498529
-0.581520 1.149465 -0.500444
-0.576761 1.155124 -0.502727
-0.571751 1.160346 -0.504813
-0.566150 1.164358 -0.506364
-0.560925 1.169266 -0.508307
-0.555337 1.173428 -0.509922
-0.550831 1.180128 -0.512650
-0.545529 1.185094 -0.514620
-0.540730 1.191320 -0.517144
-0.537989 1.202574 -0.521875
-0.532084 1.206396 -0.523352
-0.526219 1.210347 -0.524891
-0.521375 1.216884 -0.527569
-0.516635 1.223796 -0.530416
-0.511036 1.228618 -0.532355
-0.505422 1.233460 -0.534311
-0.500477 1.240139 -0.537077
-0.495354 1.246454 -0.539693
-0.489567 1.251062 -0.541571
-0.483803 1.255788 -0.543509
-0.478628 1.262238 -0.546210
-0.473081 1.267738 -0.548505
-0.466967 1.271675 -0.550127
-0.461315 1.277019 -0.552373
-0.455952 1.283324 -0.555049
-0.450424 1.289244 -0.557567
-0.446902 1.301529 -0.562872
-0.442483 1.311311 -0.567095
-0.436040 1.314812 -0.568588
-0.430183 1.320279 -0.570948
-0.424114 1.325144 -0.573056
-0.418567 1.331875 -0.575990
-0.412660 1.337524 -0.578461
-0.407548 1.346112 -0.582225
-0.401415 1.351264 -0.584501
-0.395845 1.358603 -0.587741
-0.390916 1.368548 -0.592129
-0.385629 1.377448 -0.596072
-0.379758 1.384349 -0.599153
-0.373389 1.389474 -0.601469
-0.367936 1.398463 -0.605483
-0.363725 1.412934 -0.611901
-0.356809 1.416462 -0.613551
-0.350172 1.421283 -0.615776
-0.345486 1.434933 -0.621869
-0.339404 1.442788 -0.625441
-0.332965 1.449281 -0.628428
-0.326249 1.454694 -0.630953
-0.319682 1.461038 -0.633895
-0.311916 1.461602 -0.634319
-0.304536 1.464112 -0.635603
-0.299271 1.477905 -0.641834
-0.295910 1.502778 -0.652929
-0.290475 1.517374 -0.659537
-0.280092 1.504183 -0.653984
-0.276004 1.527577 -0.664469
-0.271019 1.546865 -0.673169
-0.262266 1.543446 -0.671923
-0.255254 1.551134 -0.675558
-0.247776 1.556116 -0.678016
-0.240372 1.561913 -0.680840
-0.233109 1.569085 -0.684278
-0.226137 1.578941 -0.688905
-0.218916 1.587547 -0.692994
-0.210632 1.588118 -0.693559
-0.203761 1.600712 -0.699422
-0.197623 1.620917 -0.708647
-0.190948 1.637932 -0.716483
-0.182981 1.643921 -0.719475
-0.175609 1.656586 -0.725420
-0.169286 1.681962 -0.736983
-0.160189 1.678341 -0.735769
-0.151776 1.682550 -0.738017
-0.143076 1.683512 -0.738840
-0.135050 1.693915 -0.743843
-0.125961 1.689950 -0.742504
-0.116957 1.686629 -0.741456
-0.108522 1.692681 -0.744562
-0.099991 1.697989 -0.747348
-0.091336 1.701711 -0.749441
-0.082855 1.710456 -0.753771
-0.074152 1.715487 -0.756464
-0.065339 1.718584 -0.758308
-0.056417 1.718736 -0.758853
-0.047589 1.723269 -0.761352
-0.038777 1.731380 -0.765453
-0.029821 1.734173 -0.767198
-0.020929 1.750323 -0.774901
-0.011845 1.750843 -0.775655
-0.002748 1.753411 -0.777330
0.006415 1.760768 -0.781152
0.015521 1.757991 -0.780461
0.024766 1.764312 -0.783841
0.034055 1.769699 -0.786816
0.043352 1.773293 -0.788999
0.052695 1.777123 -0.791299
0.061959 1.777754 -0.792176
0.071302 1.779951 -0.793765
0.080711 1.782977 -0.795736
0.090526 1.792944 -0.800835
0.099673 1.789622 -0.799977
0.109022 1.789932 -0.800760
0.118216 1.787820 -0.800462
0.127509 1.787234 -0.800860
0.137156 1.791146 -0.803295
0.146677 1.792967 -0.804800
0.156092 1.793282 -0.805636
0.165631 1.794788 -0.807021
0.174598 1.790224 -0.805673
0.183604 1.786390 -0.804661
0.193106 1.787359 -0.805835
0.202489 1.787091 -0.806460
0.212131 1.788918 -0.808046
0.221556 1.788737 -0.808734
0.230562 1.785215 -0.807915
0.239887 1.784230 -0.808259
0.248998 1.781665 -0.807896
0.258383 1.781069 -0.808442
0.267985 1.781844 -0.809625
0.277110 1.779374 -0.809340
0.285618 1.773090 -0.807322
0.294359 1.768498 -0.806086
0.303539 1.766641 -0.806114
0.312719 1.764773 -0.806150
0.321700 1.761790 -0.805686
0.329743 1.753810 -0.802936
0.339264 1.753872 -0.803896
0.348396 1.751828 -0.803901
0.356952 1.746914 -0.802594
0.364912 1.739243 -0.800025
0.373751 1.735965 -0.799496
0.383935 1.738906 -0.801859
0.392969 1.736415 -0.801723
0.400822 1.728740 -0.799195
0.408189 1.719202 -0.795809
0.417439 1.717847 -0.796237
0.427100 1.718102 -0.797431
0.435633 1.713699 -0.796469
0.444194 1.709458 -0.795595
0.452184 1.703072 -0.793728
0.461710 1.702591 -0.794638
0.470011 1.697486 -0.793395
0.477963 1.691193 -0.791604
0.483939 1.678024 -0.786587
0.492209 1.673195 -0.785498
0.499895 1.666430 -0.783505
0.509170 1.665103 -0.784089
0.519166 1.666065 -0.785771
0.526206 1.657353 -0.782883
0.532795 1.647401 -0.779408
0.540925 1.642472 -0.778321
0.550066 1.640688 -0.778738
0.556993 1.632210 -0.775971
0.565402 1.628285 -0.775377
0.573653 1.623933 -0.774583
0.580271 1.614966 -0.771579
0.587403 1.607644 -0.769358
0.595870 1.604160 -0.768977
0.604209 1.600360 -0.768441
0.610203 1.590337 -0.764900
0.616205 1.580581 -0.761472
0.625106 1.578587 -0.761782
0.633351 1.574935 -0.761280
0.642004 1.572381 -0.761299
0.651952 1.573090 -0.762890
0.663609 1.577942 -0.766485
0.670013 1.569995 -0.763830
0.674715 1.558240 -0.759285
0.682330 1.553653 -0.758206
0.689447 1.548078 -0.756611
0.693387 1.535452 -0.751520
0.701967 1.533659 -0.751702
0.710878 1.532719 -0.752265
0.713321 1.517707 -0.745860
0.722551 1.517860 -0.746871
0.731084 1.516629 -0.747155
0.739128 1.514516 -0.746954
0.749726 1.517914 -0.749428
0.755346 1.511106 -0.746798
0.769116 1.521227 -0.752497
0.776423 1.518251 -0.751652
0.783480 1.515013 -0.750615
0.793069 1.517018 -0.752119
0.797444 1.508987 -0.748576
0.804278 1.506064 -0.747507
0.812814 1.506651 -0.748118
0.825980 1.516200 -0.753126
0.826207 1.501491 -0.746001
0.833702 1.500772 -0.745773
0.844343 1.506069 -0.748477
0.856946 1.515062 -0.752959
0.854525 1.496918 -0.743873
-0.710673 1.006179 -0.438605
-0.705678 1.006389 -0.439360
-0.703485 1.011071 -0.442058
-0.701589 1.016419 -0.445023
-0.698750 1.020504 -0.447399
-0.694231 1.022126 -0.448651
-0.690819 1.025677 -0.450725
-0.685987 1.027132 -0.451834
-0.682731 1.031304 -0.454116
-0.677822 1.032970 -0.455247
-0.673774 1.036218 -0.457046
-0.670004 1.040113 -0.459099
-0.666437 1.044546 -0.461355
-0.666677 1.055663 -0.466560
-0.662275 1.059128 -0.468316
-0.657847 1.062727 -0.470097
-0.653587 1.066794 -0.472054
-0.648450 1.069487 -0.473364
-0.644695 1.074800 -0.475812
-0.641873 1.081997 -0.479071
-0.637369 1.086345 -0.481028
-0.634022 1.092998 -0.483988
-0.627626 1.094149 -0.484462
-0.624130 1.100867 -0.487399
-0.618714 1.104104 -0.488758
-0.613595 1.108022 -0.490400
-0.609177 1.113433 -0.492689
-0.604904 1.119276 -0.495154
-0.600494 1.124995 -0.497547
-0.595366 1.129392 -0.499336
-0.591147 1.135764 -0.501995
-0.586739 1.141885 -0.504530
-0.582594 1.148696 -0.507364
-0.578331 1.155401 -0.510143
-0.573065 1.160069 -0.512008
-0.567420 1.163985 -0.513535
-0.561899 1.168234 -0.515207
-0.557252 1.174519 -0.517784
-0.551324 1.177987 -0.519107
-0.546112 1.183148 -0.521185
-0.542091 1.191191 -0.524544
-0.538516 1.200456 -0.528448
-0.532482 1.203959 -0.529797
-0.526198 1.206874 -0.530889
-0.522260 1.215641 -0.534583
-0.517524 1.222566 -0.537466
-0.511661 1.226725 -0.539129
-0.505569 1.230327 -0.540551
-0.500323 1.236190 -0.542984
-0.494809 1.241427 -0.545147
-0.488893 1.245642 -0.546866
-0.483234 1.250613 -0.548928
-0.478448 1.258113 -0.552119
-0.472860 1.263469 -0.554370
-0.467334 1.269089 -0.556748
-0.463602 1.280105 -0.561522
-0.459276 1.289616 -0.565639
-0.456923 1.305387 -0.572535
-0.451502 1.312074 -0.575423
-0.443611 1.311093 -0.574931
-0.437350 1.315229 -0.576712
-0.430855 1.318660 -0.578192
-0.424740 1.323393 -0.580258
-0.418968 1.329373 -0.582886
-0.413858 1.337780 -0.586597
-0.407910 1.343467 -0.589117
-0.402636 1.351705 -0.592775
-0.396444 1.356817 -0.595061
-0.391756 1.367671 -0.599897
-0.385850 1.374233 -0.602846
-0.379676 1.379941 -0.605428
-0.374287 1.388922 -0.609468
-0.369461 1.400492 -0.614664
-0.363817 1.409090 -0.618557
-0.357233 1.414003 -0.620830
-0.350521 1.418508 -0.622932
-0.345661 1.431352 -0.628736
-0.339779 1.440086 -0.632732
-0.333594 1.447752 -0.636266
-0.327262 1.455023 -0.639636
-0.320616 1.461045 -0.642462
-0.312913 1.462001 -0.643055
-0.304446 1.459001 -0.641903
-0.298203 1.467526 -0.645868
-0.296579 1.501559 -0.661155
-0.291055 1.515668 -0.667622
-0.285163 1.528412 -0.673495
-0.275730 1.520852 -0.670368
-0.268525 1.526375 -0.673057
-0.261911 1.535916 -0.677539
-0.254554 1.541168 -0.680127
-0.247675 1.549941 -0.684290
-0.240048 1.554040 -0.686385
-0.233142 1.563588 -0.690913
-0.226496 1.575758 -0.696618
-0.219716 1.587777 -0.702269
-0.214016 1.609515 -0.712260
-0.206498 1.617617 -0.716191
-0.198577 1.622785 -0.718826
-0.191718 1.638258 -0.726065
-0.183724 1.644109 -0.729025
-0.175925 1.652499 -0.733128
-0.168206 1.662601 -0.738007
-0.160019 1.668455 -0.740999
-0.151407 1.669790 -0.741981
-0.142812 1.671469 -0.743125
-0.134032 1.670748 -0.743203
-0.125576 1.674684 -0.745373
-0.117196 1.680406 -0.748351
-0.108536 1.682185 -0.749573
-0.099545 1.677919 -0.748092
-0.091220 1.686773 -0.752503
-0.082855 1.696722 -0.757417
-0.074383 1.706467 -0.762252
-0.065415 1.703765 -0.761505
-0.056755 1.711334 -0.765383
-0.047933 1.715031 -0.767530
-0.038990 1.713769 -0.767453
-0.030148 1.719765 -0.770654
-0.021240 1.724962 -0.773505
-0.012297 1.738981 -0.780347
-0.003255 1.738521 -0.780669
0.005800 1.739978 -0.781864
0.014933 1.746196 -0.785221
0.024063 1.748676 -0.786898
0.033274 1.753471 -0.789633
0.042411 1.753771 -0.790343
0.051849 1.763013 -0.795116
0.061162 1.766390 -0.797242
0.070350 1.765992 -0.797666
0.079354 1.761739 -0.796347
0.088663 1.763919 -0.797959
0.097996 1.766037 -0.799554
0.108043 1.779010 -0.806102
0.117357 1.779234 -0.806860
0.126397 1.775573 -0.805856
0.135631 1.774750 -0.806155
0.145062 1.776295 -0.807545
0.154739 1.780338 -0.810089
0.164316 1.782767 -0.811907
0.173375 1.779591 -0.811172
0.182354 1.775838 -0.810182
0.191270 1.771756 -0.809048
0.200295 1.768892 -0.808483
0.209083 1.764168 -0.807071
0.219395 1.772002 -0.811445
0.228812 1.772183 -0.812314
0.237206 1.764626 -0.809629
0.246716 1.765509 -0.810845
0.256131 1.765564 -0.811691
0.266061 1.768936 -0.814085
0.275319 1.767626 -0.814328
0.283767 1.761230 -0.812230
0.292409 1.756289 -0.810814
0.301720 1.755451 -0.811311
0.311141 1.755175 -0.812083
0.320117 1.752332 -0.811677
0.328739 1.747620 -0.810412
0.337764 1.745150 -0.810203
0.347183 1.744696 -0.810948
