ply
format ascii 1.0
comment ---
element vertex 1669
property float x
property float y
property float z
element face 0
property list uchar uint vertex_indices
end_header
-0.624443 1.229108 -0.155560
-0.619223 1.232391 -0.156320
-0.614428 1.236644 -0.157144
-0.611023 1.244125 -0.158197
-0.606014 1.247976 -0.158983
-0.601395 1.252766 -0.159833
-0.597271 1.258787 -0.160768
-0.592145 1.262454 -0.161526
-0.588237 1.269135 -0.162502
-0.584669 1.276766 -0.163547
-0.579193 1.279701 -0.164235
-0.574680 1.285108 -0.165104
-0.569772 1.289558 -0.165897
-0.566799 1.299158 -0.167078
-0.560552 1.300203 -0.167602
-0.556328 1.306684 -0.168538
-0.551567 1.311803 -0.169365
-0.546383 1.315817 -0.170102
-0.542474 1.323485 -0.171120
-0.537923 1.329466 -0.172004
-0.532638 1.333417 -0.172724
-0.527739 1.338560 -0.173534
-0.522439 1.342585 -0.174253
-0.518559 1.351006 -0.175317
-0.512974 1.354337 -0.175973
-0.508125 1.360025 -0.176813
-0.502777 1.364235 -0.177532
-0.496892 1.366773 -0.178112
-0.491349 1.370460 -0.178780
-0.487883 1.381195 -0.180019
-0.484487 1.392476 -0.181303
-0.480003 1.400299 -0.182303
-0.473177 1.400039 -0.182638
-0.468164 1.406247 -0.183501
-0.463578 1.414187 -0.184506
-0.458972 1.422288 -0.185523
-0.454922 1.432750 -0.186735
-0.448082 1.432725 -0.187072
-0.443094 1.439970 -0.188014
-0.437963 1.446863 -0.188925
-0.432355 1.452015 -0.189688
-0.426304 1.455460 -0.190305
-0.420788 1.461287 -0.191121
-0.415026 1.466232 -0.191861
-0.410892 1.478617 -0.193232
-0.405528 1.485871 -0.194167
-0.399690 1.491181 -0.194935
-0.394511 1.499835 -0.195988
-0.388326 1.503914 -0.196648
-0.382464 1.509754 -0.197458
-0.376632 1.515988 -0.198302
-0.370764 1.522287 -0.199150
-0.364525 1.526855 -0.199847
-0.359110 1.536182 -0.200956
-0.353301 1.543723 -0.201911
-0.347028 1.548904 -0.202659
-0.340682 1.553890 -0.203389
-0.334269 1.558703 -0.204103
-0.327992 1.564616 -0.204913
-0.321798 1.571398 -0.205799
-0.315031 1.574658 -0.206373
-0.308401 1.579034 -0.207045
-0.303075 1.593156 -0.208580
-0.298444 1.613463 -0.210668
-0.291240 1.615101 -0.211097
-0.285539 1.629001 -0.212619
-0.278909 1.636100 -0.213535
-0.271708 1.638712 -0.214049
-0.265293 1.648687 -0.215222
-0.259003 1.660700 -0.216580
-0.254498 1.691682 -0.219649
-0.247203 1.696283 -0.220343
-0.239846 1.700615 -0.221013
-0.232884 1.709950 -0.222135
-0.225530 1.715452 -0.222909
-0.218087 1.720395 -0.223632
-0.211188 1.733487 -0.225096
-0.204038 1.744587 -0.226380
-0.196992 1.758933 -0.227962
-0.189759 1.772251 -0.229452
-0.182320 1.783943 -0.230794
-0.174484 1.789574 -0.231581
-0.168178 1.831360 -0.235694
-0.158959 1.808292 -0.233837
-0.151516 1.830558 -0.236158
-0.143402 1.837078 -0.237025
-0.134723 1.823305 -0.236011
-0.126121 1.806855 -0.234742
-0.118974 1.872884 -0.241132
-0.110776 1.899214 -0.243841
-0.102300 1.920015 -0.246039
-0.093591 1.917065 -0.246022
-0.084881 1.924918 -0.247011
-0.076123 1.929687 -0.247710
-0.067091 1.953571 -0.250199
-0.058086 1.962689 -0.251304
-0.049019 1.970833 -0.252316
-0.039784 1.982510 -0.253658
-0.030473 1.993147 -0.254902
-0.020878 2.009030 -0.256639
-0.011642 2.012208 -0.257176
-0.001836 2.027487 -0.258853
0.007385 2.027961 -0.259127
0.016808 2.032071 -0.259741
0.027040 2.049325 -0.261600
0.036435 2.050709 -0.261949
0.046473 2.061344 -0.263174
0.056307 2.067735 -0.263991
0.065461 2.064466 -0.263883
0.074396 2.058814 -0.263541
0.085543 2.079326 -0.265693
0.095652 2.086260 -0.266544
0.105799 2.092836 -0.267357
0.115996 2.099211 -0.268145
0.126314 2.106084 -0.268976
0.136313 2.109375 -0.269457
0.146396 2.113044 -0.269969
0.156337 2.115129 -0.270322
0.165963 2.114412 -0.270399
0.175564 2.113444 -0.270445
0.185230 2.112937 -0.270528
0.194715 2.111044 -0.270469
0.203867 2.106825 -0.270179
0.212498 2.099227 -0.269554
0.221708 2.095797 -0.269323
0.230888 2.092265 -0.269074
0.239788 2.087091 -0.268658
0.248612 2.081633 -0.268206
0.257452 2.076447 -0.267772
0.265620 2.067595 -0.266973
0.274324 2.062056 -0.266487
0.282798 2.055430 -0.265886
0.290798 2.046520 -0.265055
0.299894 2.043536 -0.264789
0.309069 2.040956 -0.264553
0.317595 2.035196 -0.263999
0.326041 2.029179 -0.263412
0.334183 2.021883 -0.262691
0.342505 2.015591 -0.262059
0.350634 2.008577 -0.261347
0.359238 2.003793 -0.260842
0.367727 1.998576 -0.260286
0.375893 1.992083 -0.259598
0.383404 1.983029 -0.258653
0.393137 1.983119 -0.258583
0.408270 2.004301 -0.260542
0.402441 1.943659 -0.254588
0.415035 1.954901 -0.255570
0.421194 1.941694 -0.254183
0.428815 1.934166 -0.253337
0.436732 1.927840 -0.252600
0.444776 1.922056 -0.251907
0.453063 1.917187 -0.251297
0.456593 1.896246 -0.249136
0.458637 1.870964 -0.246555
0.472568 1.885336 -0.247776
0.481363 1.882590 -0.247350
0.489769 1.878604 -0.246801
0.496999 1.870994 -0.245902
0.504942 1.865726 -0.245227
0.513179 1.861436 -0.244644
0.519836 1.852527 -0.243621
0.527067 1.845514 -0.242781
0.534123 1.838166 -0.241912
0.540497 1.829080 -0.240884
0.548774 1.825550 -0.240390
0.555865 1.818858 -0.239603
0.562127 1.810127 -0.238632
0.568952 1.803170 -0.237840
0.576292 1.797804 -0.237212
0.583643 1.792674 -0.236621
0.589781 1.784652 -0.235772
0.597038 1.779759 -0.235238
0.602054 1.769519 -0.234217
0.610511 1.768135 -0.234055
0.616579 1.761120 -0.233384
0.630188 1.772538 -0.234479
0.633570 1.759603 -0.233299
0.640559 1.755616 -0.232991
0.646623 1.749779 -0.232538
0.653867 1.746994 -0.232402
0.661239 1.744783 -0.232352
0.670276 1.746588 -0.232714
0.680096 1.750332 -0.233293
-0.785203 1.046559 -0.129336
-0.782366 1.050743 -0.129804
-0.779165 1.054571 -0.130279
-0.775982 1.058595 -0.130794
-0.773447 1.063756 -0.131404
-0.770254 1.068109 -0.131994
-0.766043 1.071082 -0.132528
-0.762231 1.074801 -0.133133
-0.759709 1.080663 -0.133891
-0.753265 1.080570 -0.134312
-0.750685 1.086633 -0.135130
-0.746934 1.090998 -0.135865
-0.742761 1.094812 -0.136586
-0.738774 1.099037 -0.137351
-0.736385 1.106001 -0.138306
-0.732760 1.111072 -0.139158
-0.726787 1.112313 -0.139778
-0.722392 1.116257 -0.140583
-0.718554 1.121230 -0.141466
-0.714213 1.125422 -0.142307
-0.709269 1.128625 -0.143090
-0.707747 1.137932 -0.144287
-0.702863 1.141384 -0.145101
-0.697852 1.144642 -0.145904
-0.693884 1.149835 -0.146842
-0.689617 1.154538 -0.147750
-0.687636 1.163578 -0.148961
-0.681765 1.165386 -0.149671
-0.677725 1.170683 -0.150624
-0.672782 1.174285 -0.151457
-0.668379 1.178959 -0.152364
-0.664439 1.184589 -0.153339
-0.660357 1.189994 -0.154296
-0.655430 1.193731 -0.155129
-0.648612 1.193583 -0.155673
-0.646343 1.202836 -0.156905
-0.642044 1.207950 -0.157829
-0.638473 1.214664 -0.158869
-0.633585 1.218612 -0.159699
-0.628944 1.223119 -0.160566
-0.623896 1.226750 -0.161363
-0.619604 1.232090 -0.162284
-0.615983 1.239011 -0.163324
-0.611651 1.244386 -0.164241
-0.606800 1.248609 -0.165064
-0.601839 1.252599 -0.165864
-0.598301 1.260022 -0.166929
-0.593405 1.264264 -0.167740
-0.589086 1.269958 -0.168661
-0.584344 1.274675 -0.169500
-0.579493 1.279163 -0.170317
-0.574352 1.282953 -0.171072
-0.568219 1.284198 -0.171616
-0.564565 1.291924 -0.172680
-0.560916 1.299807 -0.173755
-0.556042 1.304523 -0.174569
-0.551512 1.310248 -0.175461
-0.546709 1.315305 -0.176294
-0.541929 1.320501 -0.177135
-0.538079 1.328450 -0.178202
-0.533389 1.334123 -0.179077
-0.527927 1.337615 -0.179765
-0.523240 1.343472 -0.180649
-0.518287 1.348634 -0.181470
-0.513642 1.354847 -0.182378
-0.508332 1.359097 -0.183116
-0.503186 1.363943 -0.183901
-0.501457 1.379991 -0.185643
-0.498530 1.392548 -0.187088
-0.493187 1.397350 -0.187866
-0.486133 1.396408 -0.188143
-0.480657 1.400853 -0.188882
-0.478642 1.417640 -0.190692
-0.474926 1.428840 -0.192019
-0.465430 1.419196 -0.191521
-0.460346 1.425607 -0.192423
-0.455362 1.432585 -0.193373
-0.449847 1.437710 -0.194158
-0.443649 1.440280 -0.194715
-0.438438 1.446868 -0.195626
-0.432567 1.450951 -0.196313
-0.426915 1.456067 -0.197089
-0.421221 1.461158 -0.197861
-0.417370 1.474469 -0.199369
-0.411755 1.480424 -0.200217
-0.405622 1.484218 -0.200870
-0.400303 1.491935 -0.201875
-0.394444 1.497367 -0.202673
-0.388679 1.503463 -0.203529
-0.382586 1.508159 -0.204258
-0.376847 1.514847 -0.205167
-0.370802 1.520214 -0.205955
-0.365039 1.527323 -0.206901
-0.359114 1.533853 -0.207793
-0.353237 1.540961 -0.208739
-0.347284 1.547972 -0.209675
-0.340878 1.552598 -0.210391
-0.334462 1.557383 -0.211121
-0.328417 1.564767 -0.212090
-0.322132 1.570982 -0.212951
-0.315415 1.574607 -0.213571
-0.308629 1.577934 -0.214161
-0.304046 1.597434 -0.216261
-0.298909 1.614099 -0.218101
-0.292637 1.623078 -0.219223
-0.285551 1.626093 -0.219785
-0.279052 1.634224 -0.220827
-0.272858 1.645646 -0.222180
-0.266232 1.654041 -0.223249
-0.258865 1.656033 -0.223712
-0.254977 1.692972 -0.227487
-0.246884 1.689322 -0.227417
-0.240159 1.700342 -0.228739
-0.233138 1.709038 -0.229841
-0.225865 1.715568 -0.230736
-0.218478 1.721324 -0.231557
-0.211209 1.729384 -0.232598
-0.204797 1.751265 -0.234966
-0.197356 1.759866 -0.236061
-0.190193 1.774565 -0.237744
-0.182400 1.779895 -0.238525
-0.174725 1.788574 -0.239630
-0.166864 1.794760 -0.240492
-0.159723 1.820713 -0.243269
-0.151663 1.826872 -0.244131
-0.143620 1.835400 -0.245222
-0.135305 1.836113 -0.245552
-0.126391 1.807839 -0.243054
-0.119207 1.871715 -0.249540
-0.111023 1.899085 -0.252472
-0.102388 1.896298 -0.252457
-0.093776 1.890653 -0.252158
-0.085053 1.946763 -0.257916
-0.076368 1.926867 -0.256215
-0.067292 1.955217 -0.259253
-0.058298 1.962836 -0.260253
-0.049197 1.972227 -0.261426
-0.039992 1.982291 -0.262663
-0.030719 1.991536 -0.263819
-0.021162 2.006414 -0.265531
-0.011831 2.012128 -0.266333
-0.002119 2.025191 -0.267862
0.007247 2.028714 -0.268442
0.016751 2.034157 -0.269209
0.026513 2.043099 -0.270321
0.036751 2.058234 -0.272048
0.046537 2.064559 -0.272894
0.056147 2.067572 -0.273405
0.065379 2.065255 -0.273379
0.073875 2.054103 -0.272462
0.085517 2.080563 -0.275307
0.095830 2.089622 -0.276407
0.106383 2.100228 -0.277657
0.116328 2.103698 -0.278187
0.126194 2.106025 -0.278595
0.136083 2.108276 -0.278991
0.146417 2.114137 -0.279744
0.156325 2.115867 -0.280075
0.166010 2.115565 -0.280194
0.175652 2.114847 -0.280265
0.185456 2.115294 -0.280446
0.194747 2.111881 -0.280230
0.203864 2.107367 -0.279894
0.212630 2.100644 -0.279328
0.221510 2.094976 -0.278859
0.230831 2.092351 -0.278691
0.239965 2.088601 -0.278401
0.248867 2.083548 -0.277970
0.257316 2.076008 -0.277278
0.265554 2.067549 -0.276485
0.274226 2.061818 -0.275959
0.282838 2.055930 -0.275409
0.291059 2.048155 -0.274659
0.299850 2.043557 -0.274222
0.308939 2.040537 -0.273936
0.317429 2.034596 -0.273345
0.326614 2.032113 -0.273096
0.334522 2.023648 -0.272230
0.342166 2.014222 -0.271258
0.350747 2.009242 -0.270729
0.359200 2.003777 -0.270141
0.367964 1.999728 -0.269688
0.376577 1.995074 -0.269164
0.383572 1.983837 -0.267964
0.392495 1.980650 -0.267572
0.403432 1.985366 -0.267972
0.406218 1.958315 -0.265144
0.414001 1.951065 -0.264315
0.421252 1.941972 -0.263292
0.426795 1.926860 -0.261653
0.435347 1.922926 -0.261137
0.444422 1.920837 -0.260801
0.458768 1.936877 -0.262289
0.456255 1.895096 -0.257933
0.461345 1.879962 -0.256264
0.471870 1.883011 -0.256423
0.481448 1.882806 -0.256249
0.489383 1.877301 -0.255537
0.496821 1.870335 -0.254676
0.503747 1.861937 -0.253670
0.512282 1.858572 -0.253168
0.520419 1.854065 -0.252551
0.527169 1.845587 -0.251538
0.532896 1.834378 -0.250255
0.540582 1.829019 -0.249562
0.548092 1.823304 -0.248838
0.555426 1.817263 -0.248089
0.562679 1.811182 -0.247345
0.569155 1.803221 -0.246423
0.576374 1.797475 -0.245734
0.582909 1.790164 -0.244902
0.590576 1.786019 -0.244401
0.597063 1.779093 -0.243640
0.604712 1.775345 -0.243214
0.612287 1.771634 -0.242812
0.622588 1.774776 -0.243112
0.623900 1.756431 -0.241301
0.632031 1.754862 -0.241182
0.639374 1.751668 -0.240927
0.646532 1.748321 -0.240685
0.653693 1.745266 -0.240501
0.663055 1.747482 -0.240871
0.670950 1.746601 -0.240963
0.666313 1.718240 -0.238343
-0.789104 1.050677 -0.134894
-0.782877 1.050011 -0.135081
-0.779476 1.053581 -0.135565
-0.777598 1.059566 -0.136230
-0.774238 1.063546 -0.136795
-0.770818 1.067597 -0.137391
-0.766688 1.070731 -0.137954
-0.763268 1.075089 -0.138621
-0.758780 1.077950 -0.139213
-0.756484 1.084353 -0.140062
-0.752069 1.087595 -0.140724
-0.749319 1.093600 -0.141591
-0.742651 1.093460 -0.142063
-0.739738 1.099450 -0.142966
-0.736132 1.104447 -0.143818
-0.732490 1.109501 -0.144689
-0.726770 1.111181 -0.145340
-0.721251 1.113233 -0.146026
-0.720001 1.122632 -0.147237
-0.715040 1.125788 -0.148019
-0.712656 1.133500 -0.149134
-0.708023 1.137367 -0.149981
-0.702991 1.140565 -0.150784
-0.698482 1.144737 -0.151661
-0.695229 1.151254 -0.152713
-0.691640 1.157242 -0.153730
-0.686613 1.160612 -0.154555
-0.681575 1.163979 -0.155379
-0.678562 1.171236 -0.156496
-0.673690 1.174989 -0.157347
-0.669252 1.179610 -0.158263
-0.665350 1.185331 -0.159262
-0.659982 1.188164 -0.160035
-0.654684 1.191130 -0.160815
-0.651066 1.197544 -0.161860
-0.646654 1.202380 -0.162780
-0.641809 1.206340 -0.163626
-0.638153 1.212853 -0.164672
-0.635128 1.220808 -0.165831
-0.628959 1.222000 -0.166442
-0.624572 1.227087 -0.167363
-0.620254 1.232372 -0.168296
-0.615846 1.237508 -0.169212
-0.612385 1.244869 -0.170308
-0.607540 1.249112 -0.171144
-0.602799 1.253632 -0.171997
-0.598368 1.258929 -0.172910
-0.594265 1.265082 -0.173892
-0.589646 1.270050 -0.174770
-0.584705 1.274272 -0.175580
-0.579511 1.277892 -0.176334
-0.574563 1.282160 -0.177138
-0.570230 1.288066 -0.178079
-0.566021 1.294387 -0.179052
-0.560914 1.298416 -0.179823
-0.556330 1.303898 -0.180716
-0.551869 1.309803 -0.181643
-0.546979 1.314614 -0.182470
-0.541916 1.319006 -0.183257
-0.538391 1.327865 -0.184433
-0.533514 1.332987 -0.185278
-0.528462 1.337679 -0.186081
-0.521124 1.335592 -0.186277
-0.517753 1.345453 -0.187533
-0.513334 1.352315 -0.188520
-0.508119 1.356830 -0.189294
-0.503924 1.364684 -0.190366
-0.501703 1.379138 -0.192034
-0.498155 1.389630 -0.193344
-0.491247 1.389142 -0.193655
-0.482989 1.383963 -0.193532
-0.480016 1.396895 -0.195059
-0.474356 1.400727 -0.195753
-0.468883 1.405306 -0.196512
-0.463474 1.410228 -0.197300
-0.458443 1.416683 -0.198228
-0.455178 1.430032 -0.199795
-0.450343 1.437751 -0.200839
-0.444322 1.441036 -0.201469
-0.438583 1.445525 -0.202209
-0.432903 1.450381 -0.202981
-0.427277 1.455608 -0.203786
-0.422240 1.463515 -0.204842
-0.417509 1.473038 -0.206051
-0.411847 1.478769 -0.206900
-0.406089 1.484255 -0.207726
-0.400685 1.491591 -0.208726
-0.394612 1.496014 -0.209448
-0.388402 1.499927 -0.210120
-0.382827 1.507152 -0.211107
-0.376801 1.512363 -0.211901
-0.371145 1.519729 -0.212901
-0.365494 1.527451 -0.213935
-0.359513 1.533700 -0.214827
-0.353189 1.538293 -0.215558
-0.347211 1.545104 -0.216504
-0.341164 1.551836 -0.217441
-0.334886 1.557482 -0.218272
-0.328838 1.564885 -0.219274
-0.322610 1.571507 -0.220200
-0.315614 1.573298 -0.220654
-0.308644 1.575328 -0.221129
-0.303778 1.592699 -0.223108
-0.299108 1.612724 -0.225351
-0.292954 1.622610 -0.226601
-0.285825 1.625308 -0.227143
-0.279168 1.632126 -0.228090
-0.272966 1.643427 -0.229481
-0.266425 1.652538 -0.230657
-0.259429 1.658075 -0.231478
-0.255142 1.691113 -0.235035
-0.247399 1.691130 -0.235310
-0.240404 1.699316 -0.236398
-0.233042 1.704052 -0.237141
-0.226031 1.713581 -0.238364
-0.219138 1.725745 -0.239852
-0.212118 1.737640 -0.241314
-0.205040 1.750245 -0.242849
-0.197909 1.763802 -0.244482
-0.190272 1.770729 -0.245447
-0.182771 1.781313 -0.246782
-0.175044 1.789191 -0.247844
-0.167229 1.796650 -0.248863
-0.159958 1.819574 -0.251452
-0.152169 1.833606 -0.253141
-0.143962 1.837919 -0.253841
-0.135608 1.837840 -0.254093
-0.126844 1.817743 -0.252297
-0.119208 1.856139 -0.256475
-0.111110 1.885041 -0.259688
-0.102552 1.885131 -0.259952
-0.094067 1.919536 -0.263737
-0.085239 1.964370 -0.268600
-0.076324 1.963645 -0.268781
-0.067475 1.958161 -0.268468
-0.058439 1.967139 -0.269643
-0.049398 1.972477 -0.270441
-0.040242 1.980384 -0.271502
-0.030924 1.991202 -0.272863
-0.021570 2.000166 -0.274031
-0.011727 2.019346 -0.276258
-0.002393 2.023025 -0.276874
0.007110 2.029405 -0.277767
0.016762 2.037440 -0.278830
0.026578 2.046953 -0.280045
0.036340 2.054160 -0.281017
0.046315 2.063485 -0.282206
0.055809 2.064882 -0.282564
0.064892 2.060703 -0.282333
0.074289 2.060785 -0.282543
0.085683 2.083967 -0.285171
0.095643 2.088900 -0.285881
0.107321 2.111274 -0.288420
0.117190 2.113419 -0.288830
0.126581 2.110734 -0.288726
0.136275 2.110957 -0.288921
0.146157 2.112721 -0.289273
0.156361 2.116956 -0.289880
0.166222 2.118000 -0.290144
0.175907 2.117496 -0.290238
0.185136 2.113492 -0.289955
0.194336 2.109451 -0.289660
0.203504 2.105339 -0.289351
0.212814 2.102353 -0.289153
0.221725 2.096808 -0.288676
0.230781 2.092414 -0.288313
0.239779 2.087800 -0.287919
0.248753 2.083182 -0.287517
0.257420 2.076911 -0.286930
0.265890 2.069733 -0.286239
0.274331 2.062647 -0.285549
0.283022 2.057147 -0.285019
0.291604 2.051228 -0.284436
0.300246 2.045774 -0.283894
0.308788 2.039951 -0.283303
0.318042 2.037748 -0.283089
0.326188 2.030222 -0.282300
0.335177 2.026833 -0.281942
0.342616 2.016387 -0.280825
0.351047 2.010683 -0.280204
0.360010 2.007405 -0.279831
0.367682 1.998607 -0.278863
0.375529 1.990764 -0.277988
0.383919 1.985324 -0.277359
0.394181 1.987468 -0.277527
0.403256 1.984718 -0.277167
0.409016 1.969143 -0.275437
0.413111 1.947722 -0.273080
0.422729 1.947468 -0.272961
0.431843 1.945252 -0.272626
0.436288 1.926280 -0.270508
0.444858 1.922348 -0.269977
0.459695 1.940037 -0.271726
0.456631 1.896320 -0.266975
0.460544 1.877229 -0.264824
0.472221 1.884078 -0.265409
0.481231 1.882003 -0.265047
0.489487 1.877508 -0.264425
0.497223 1.871439 -0.263634
0.504353 1.863623 -0.262657
0.512586 1.859291 -0.262046
0.520300 1.853484 -0.261280
0.525852 1.841483 -0.259864
0.533288 1.835212 -0.259053
0.541151 1.830298 -0.258387
0.548007 1.822697 -0.257444
0.555215 1.816269 -0.256631
0.562565 1.810414 -0.255886
0.569389 1.803334 -0.255022
0.576672 1.797696 -0.254319
0.584919 1.794760 -0.253912
0.592498 1.790260 -0.253355
0.598849 1.782861 -0.252511
0.605477 1.776447 -0.251788
0.614486 1.776169 -0.251724
0.620201 1.768036 -0.250862
0.626629 1.761962 -0.250238
0.631592 1.752735 -0.249308
0.639320 1.750380 -0.249120
0.647193 1.748609 -0.249019
0.653389 1.743255 -0.248572
0.664445 1.749224 -0.249336
0.670714 1.744596 -0.249023
0.676485 1.739206 -0.248660
-0.785984 1.044686 -0.139817
-0.784177 1.050430 -0.140446
-0.778729 1.051050 -0.140749
-0.777454 1.057942 -0.141512
-0.775181 1.063566 -0.142215
-0.769836 1.064765 -0.142635
-0.765681 1.067877 -0.143212
-0.763251 1.073763 -0.144010
-0.759783 1.078227 -0.144731
-0.756449 1.083049 -0.145500
-0.752125 1.086458 -0.146188
-0.747821 1.090012 -0.146906
-0.744184 1.094746 -0.147727
-0.739913 1.098575 -0.148499
-0.737029 1.104775 -0.149461
-0.732573 1.108511 -0.150255
-0.727710 1.111646 -0.151016
-0.724260 1.117233 -0.151971
-0.720985 1.123227 -0.152969
-0.717259 1.128549 -0.153924
-0.713015 1.133053 -0.154825
-0.708514 1.137166 -0.155701
-0.703349 1.140143 -0.156494
-0.698493 1.143699 -0.157333
-0.694548 1.148948 -0.158309
-0.690783 1.154594 -0.159318
-0.685900 1.158217 -0.160167
-0.681733 1.163214 -0.161127
-0.678035 1.169158 -0.162163
-0.675220 1.176879 -0.163344
-0.670911 1.181782 -0.164296
-0.665734 1.185003 -0.165107
-0.660372 1.187852 -0.165884
-0.655302 1.191285 -0.166706
-0.651530 1.197387 -0.167746
-0.647097 1.202180 -0.168674
-0.643114 1.207956 -0.169682
-0.639660 1.214921 -0.170789
-0.635950 1.221421 -0.171853
-0.632454 1.228467 -0.172962
-0.625286 1.227484 -0.173375
-0.621406 1.233757 -0.174409
-0.617292 1.239578 -0.175400
-0.612191 1.243195 -0.176195
-0.608302 1.249645 -0.177234
-0.603522 1.254082 -0.178092
-0.598758 1.258590 -0.178951
-0.594403 1.264126 -0.179897
-0.589765 1.269038 -0.180784
-0.585584 1.275138 -0.181773
-0.580296 1.278536 -0.182515
-0.574953 1.281808 -0.183241
-0.571120 1.289002 -0.184318
-0.566091 1.293184 -0.185118
-0.561763 1.299274 -0.186088
-0.557281 1.305046 -0.187025
-0.552457 1.309976 -0.187882
-0.547417 1.314374 -0.188686
-0.542953 1.320456 -0.189642
-0.538405 1.326408 -0.190583
-0.533822 1.332364 -0.191522
-0.528231 1.335463 -0.192190
-0.523477 1.341094 -0.193092
-0.519079 1.347917 -0.194103
-0.513647 1.351690 -0.194824
-0.507951 1.354694 -0.195469
-0.503181 1.360683 -0.196393
-0.499979 1.371885 -0.197812
-0.494302 1.375241 -0.198482
-0.489288 1.380871 -0.199366
-0.481735 1.377978 -0.199428
-0.479358 1.392869 -0.201199
-0.473446 1.395750 -0.201811
-0.468849 1.403401 -0.202882
-0.463405 1.408171 -0.203672
-0.458284 1.414260 -0.204588
-0.455807 1.430552 -0.206499
-0.450275 1.435596 -0.207313
-0.444343 1.439204 -0.207983
-0.439041 1.445428 -0.208909
-0.433504 1.450885 -0.209758
-0.428251 1.457695 -0.210739
-0.422938 1.464478 -0.211716
-0.417457 1.470761 -0.212643
-0.411927 1.477048 -0.213570
-0.406338 1.483285 -0.214490
-0.400865 1.490293 -0.215487
-0.394944 1.495433 -0.216297
-0.388986 1.500585 -0.217106
-0.382894 1.505259 -0.217867
-0.377043 1.511343 -0.218768
-0.371422 1.518888 -0.219816
-0.366174 1.528780 -0.221101
-0.360003 1.534041 -0.221918
-0.353646 1.538480 -0.222652
-0.347585 1.544840 -0.223579
-0.341624 1.552109 -0.224598
-0.335384 1.558028 -0.225480
-0.329674 1.567627 -0.226738
-0.323096 1.572070 -0.227469
-0.315896 1.572536 -0.227791
-0.308956 1.574796 -0.228295
-0.303003 1.584296 -0.229543
-0.299515 1.612901 -0.232759
-0.292755 1.618118 -0.233570
-0.286021 1.623885 -0.234437
-0.279051 1.628061 -0.235140
-0.272143 1.633068 -0.235927
-0.266271 1.647884 -0.237733
-0.259337 1.653847 -0.238621
-0.255792 1.694095 -0.243080
-0.248335 1.697320 -0.243688
-0.240528 1.696957 -0.243918
-0.233264 1.702785 -0.244795
-0.226362 1.713638 -0.246198
-0.219379 1.724698 -0.247625
-0.212297 1.735739 -0.249050
-0.205128 1.746947 -0.250494
-0.197899 1.758776 -0.252006
-0.190715 1.773185 -0.253790
-0.183165 1.783177 -0.255110
-0.175472 1.792070 -0.256314
-0.167889 1.805200 -0.257968
-0.160087 1.815799 -0.259354
-0.152264 1.828483 -0.260963
-0.144370 1.842621 -0.262728
-0.135762 1.833731 -0.262038
-0.126973 1.811957 -0.259967
-0.119056 1.831475 -0.262304
-0.111259 1.876904 -0.267417
-0.103012 1.917823 -0.272056
-0.094358 1.945662 -0.275300
-0.085519 1.944272 -0.275406
-0.076568 1.960861 -0.277444
-0.067631 1.963201 -0.277948
-0.058650 1.967024 -0.278609
-0.049611 1.971982 -0.279390
-0.040566 1.975391 -0.280001
-0.031020 1.994315 -0.282290
-0.021747 2.000379 -0.283185
-0.012196 2.012049 -0.284687
-0.002555 2.023261 -0.286137
0.007006 2.030710 -0.287177
0.016744 2.040102 -0.288426
0.026407 2.046682 -0.289367
0.036023 2.051500 -0.290112
0.045781 2.057696 -0.291005
0.055369 2.060695 -0.291545
0.064687 2.059744 -0.291648
0.074199 2.061228 -0.292013
0.085256 2.080408 -0.294313
0.096955 2.104630 -0.297164
0.107356 2.112813 -0.298254
0.117351 2.116089 -0.298800
0.127009 2.115780 -0.298947
0.136460 2.113523 -0.298874
0.146339 2.115103 -0.299217
0.156228 2.116557 -0.299541
0.166220 2.118642 -0.299928
0.175642 2.116019 -0.299789
0.184961 2.112720 -0.299569
0.194045 2.107822 -0.299165
0.203258 2.104056 -0.298879
0.212527 2.100806 -0.298643
0.221967 2.098769 -0.298533
0.230664 2.091992 -0.297891
0.239448 2.086041 -0.297332
0.248460 2.081686 -0.296943
0.257454 2.077343 -0.296546
0.266008 2.070612 -0.295877
0.274548 2.064037 -0.295217
0.282948 2.056918 -0.294488
0.291640 2.051566 -0.293946
0.300378 2.046584 -0.293438
0.309225 2.042254 -0.292993
0.317680 2.036079 -0.292334
0.326040 2.029601 -0.291634
0.334275 2.022699 -0.290878
0.342957 2.018005 -0.290358
0.351268 2.011718 -0.289653
0.359218 2.003988 -0.288779
0.367096 1.996133 -0.287883
0.375154 1.989217 -0.287082
0.383863 1.985102 -0.286584
0.393909 1.986377 -0.286676
0.403383 1.985208 -0.286487
0.407300 1.962504 -0.283902
0.414999 1.954837 -0.282978
0.423879 1.951701 -0.282548
0.432624 1.948047 -0.282052
0.440534 1.941406 -0.281219
0.445984 1.926229 -0.279434
0.456003 1.927220 -0.279431
0.459931 1.907405 -0.277122
0.460200 1.875971 -0.273526
0.472226 1.883968 -0.274281
0.481483 1.882671 -0.274004
0.489838 1.878453 -0.273401
0.497991 1.873643 -0.272729
0.505761 1.867721 -0.271933
0.512788 1.859666 -0.270900
0.520138 1.852742 -0.269991
0.527711 1.846616 -0.269171
0.533983 1.836884 -0.267957
0.541109 1.829819 -0.267039
0.549121 1.825402 -0.266415
0.555074 1.815441 -0.265190
0.562603 1.810032 -0.264471
0.570295 1.805221 -0.263825
0.577393 1.799011 -0.263037
0.585683 1.796105 -0.262621
0.594113 1.793696 -0.262273
0.599464 1.783663 -0.261107
0.604970 1.774371 -0.260039
0.612072 1.769356 -0.259457
0.617792 1.761244 -0.258556
0.626615 1.760913 -0.258525
0.632443 1.753666 -0.257763
0.640238 1.751368 -0.257565
0.647861 1.748920 -0.257376
0.656319 1.748639 -0.257450
0.664799 1.748637 -0.257583
0.673522 1.749406 -0.257830
0.677454 1.739812 -0.256970
-0.792211 1.052148 -0.145688
-0.784107 1.048869 -0.145684
-0.781265 1.053327 -0.146279
-0.776963 1.055812 -0.146753
-0.773524 1.059721 -0.147358
-0.769542 1.062974 -0.147939
-0.766254 1.067422 -0.148635
-0.762763 1.071718 -0.149342
-0.761972 1.080333 -0.150402
-0.756636 1.082088 -0.150960
-0.751835 1.084775 -0.151607
-0.747706 1.088624 -0.152363
-0.744627 1.094272 -0.153275
-0.740403 1.098203 -0.154070
-0.736557 1.102851 -0.154936
-0.732637 1.107482 -0.155814
-0.728994 1.112674 -0.156749
-0.725054 1.117467 -0.157662
-0.721973 1.123814 -0.158711
-0.717301 1.127527 -0.159555
-0.713030 1.131992 -0.160466
-0.708279 1.135668 -0.161318
-0.703450 1.139247 -0.162164
-0.698378 1.142416 -0.162979
-0.693801 1.146508 -0.163873
-0.690716 1.153394 -0.165004
-0.686217 1.157731 -0.165921
-0.681939 1.162523 -0.166877
-0.678432 1.168830 -0.167963
-0.675423 1.176179 -0.169140
-0.671012 1.180879 -0.170087
-0.666037 1.184497 -0.170937
-0.660678 1.187352 -0.171717
-0.656451 1.192495 -0.172695
-0.652146 1.197520 -0.173659
-0.648004 1.202922 -0.174654
-0.643687 1.208007 -0.175618
-0.638619 1.211535 -0.176438
-0.636068 1.220495 -0.177745
-0.631746 1.225726 -0.178712
-0.627171 1.230446 -0.179629
-0.621103 1.231861 -0.180238
-0.617332 1.238436 -0.181317
-0.613657 1.245315 -0.182420
-0.609334 1.250784 -0.183390
-0.604353 1.254762 -0.184216
-0.599070 1.258044 -0.184973
-0.593689 1.261093 -0.185702
-0.590902 1.270501 -0.187026
-0.585911 1.274610 -0.187848
-0.581082 1.279160 -0.188706
-0.576515 1.284422 -0.189628
-0.571569 1.288777 -0.190460
-0.566783 1.293594 -0.191331
-0.562095 1.298733 -0.192230
-0.557250 1.303523 -0.193092
-0.552530 1.308716 -0.193989
-0.548377 1.315564 -0.195044
-0.542788 1.318496 -0.195713
-0.538127 1.324099 -0.196640
-0.533391 1.329581 -0.197553
-0.530035 1.339229 -0.198873
-0.524790 1.343453 -0.199656
-0.519269 1.346904 -0.200359
-0.514214 1.351833 -0.201205
-0.509091 1.356644 -0.202036
-0.503168 1.358997 -0.202619
-0.497572 1.362420 -0.203305
-0.493924 1.372309 -0.204638
-0.486212 1.368865 -0.204627
-0.483122 1.380977 -0.206181
-0.477280 1.383918 -0.206807
-0.476829 1.405898 -0.209363
-0.472871 1.416027 -0.210719
-0.464060 1.408743 -0.210299
-0.458479 1.413141 -0.211066
-0.454917 1.425300 -0.212625
-0.450291 1.433754 -0.213806
-0.444966 1.439732 -0.214731
-0.439511 1.445364 -0.215620
-0.434687 1.453750 -0.216792
-0.429038 1.458979 -0.217636
-0.423203 1.463580 -0.218415
-0.417658 1.469581 -0.219337
-0.412352 1.476852 -0.220390
-0.406441 1.481638 -0.221184
-0.401203 1.489717 -0.222321
-0.395645 1.496594 -0.223331
-0.389450 1.500636 -0.224044
-0.383339 1.505244 -0.224815
-0.377440 1.511102 -0.225717
-0.371761 1.518361 -0.226766
-0.366763 1.529598 -0.228235
-0.360601 1.534957 -0.229084
-0.354246 1.539462 -0.229841
-0.348073 1.545223 -0.230730
-0.342066 1.552259 -0.231755
-0.336181 1.560401 -0.232898
-0.330341 1.569275 -0.234120
-0.323655 1.573097 -0.234802
-0.316559 1.574345 -0.235207
-0.309652 1.576938 -0.235754
-0.303741 1.586849 -0.237087
-0.301307 1.623430 -0.241294
-0.293314 1.619516 -0.241143
-0.286084 1.621382 -0.241613
-0.279250 1.626655 -0.242449
-0.272729 1.635025 -0.243622
-0.266305 1.644945 -0.244963
-0.262092 1.676687 -0.248678
-0.255661 1.689284 -0.250316
-0.248591 1.696379 -0.251357
-0.240830 1.696557 -0.251642
-0.233593 1.702747 -0.252583
-0.227073 1.718339 -0.254554
-0.220010 1.728715 -0.255955
-0.212794 1.738232 -0.257263
-0.204985 1.740239 -0.257745
-0.198020 1.755841 -0.259724
-0.190961 1.772249 -0.261794
-0.183669 1.787086 -0.263694
-0.175889 1.794688 -0.264795
-0.168282 1.807695 -0.266495
-0.160432 1.817519 -0.267843
-0.152664 1.832174 -0.269729
-0.144663 1.843522 -0.271248
-0.136314 1.845262 -0.271699
-0.127280 1.814868 -0.268565
-0.119712 1.856860 -0.273500
-0.112013 1.920977 -0.280916
-0.103172 1.906580 -0.279562
-0.094507 1.908962 -0.280082
-0.085826 1.909884 -0.280435
-0.076935 1.939847 -0.284047
-0.067813 1.965970 -0.287231
-0.058860 1.966871 -0.287581
-0.049731 1.975832 -0.288836
-0.040388 1.989920 -0.290668
-0.031147 1.996345 -0.291634
-0.021842 2.002884 -0.292612
-0.012495 2.008917 -0.293530
-0.002837 2.020729 -0.295101
0.006904 2.031969 -0.296606
0.016681 2.041885 -0.297959
0.026161 2.045052 -0.298543
0.035733 2.049188 -0.299234
0.045363 2.053568 -0.299950
0.055200 2.060187 -0.300917
0.064729 2.061939 -0.301325
0.074028 2.060599 -0.301377
0.085604 2.085800 -0.304455
0.096384 2.099567 -0.306227
0.106742 2.107488 -0.307326
0.116718 2.110770 -0.307891
0.126579 2.112580 -0.308281
0.136437 2.114123 -0.308636
0.146259 2.115144 -0.308925
0.156177 2.116790 -0.309281
0.165880 2.116480 -0.309406
0.175349 2.114275 -0.309306
0.184771 2.111767 -0.309165
0.194151 2.109027 -0.308991
0.203349 2.105082 -0.308671
0.212601 2.101649 -0.308403
0.221620 2.096787 -0.307962
0.230614 2.091945 -0.307516
0.239382 2.085872 -0.306921
0.248177 2.080191 -0.306363
0.256996 2.074847 -0.305836
0.265880 2.070043 -0.305364
0.274431 2.063525 -0.304685
0.282527 2.054760 -0.303738
0.291725 2.052104 -0.303490
0.300312 2.046323 -0.302872
0.308986 2.041117 -0.302313
0.317326 2.034396 -0.301569
0.325944 2.029175 -0.300991
0.334252 2.022613 -0.300250
0.342486 2.015866 -0.299478
0.350587 2.008676 -0.298647
0.358566 2.001128 -0.297766
0.366551 1.993780 -0.296899
0.374635 1.987010 -0.296092
0.383580 1.983899 -0.295699
0.393580 1.985003 -0.295787
0.403610 1.986038 -0.295857
0.409845 1.972248 -0.294205
0.418427 1.967726 -0.293616
0.426256 1.960433 -0.292700
0.433652 1.951694 -0.291609
0.443147 1.950640 -0.291399
0.450658 1.942519 -0.290366
0.455732 1.926149 -0.288374
0.458489 1.902375 -0.285523
0.461514 1.880188 -0.282852
0.472132 1.883485 -0.283114
0.481684 1.883126 -0.282950
0.490139 1.879196 -0.282369
0.498583 1.875254 -0.281784
0.506285 1.869074 -0.280938
0.513140 1.860451 -0.279810
0.519500 1.850548 -0.278535
0.527776 1.846478 -0.277930
0.536144 1.842734 -0.277364
0.542779 1.834152 -0.276245
0.548346 1.822812 -0.274814
0.555494 1.816129 -0.273923
0.562944 1.810444 -0.273151
0.570504 1.805223 -0.272441
0.576951 1.797246 -0.271425
0.586213 1.796825 -0.271283
0.594532 1.794059 -0.270886
0.596677 1.775867 -0.268742
0.604463 1.772288 -0.268282
0.615895 1.777861 -0.268882
0.619112 1.763497 -0.267228
0.625746 1.757818 -0.266584
0.634490 1.757423 -0.266565
0.641700 1.753629 -0.266181
0.649231 1.750854 -0.265938
0.657342 1.749672 -0.265903
0.666941 1.752091 -0.266306
0.675261 1.751831 -0.266430
0.683858 1.752427 -0.266682
-0.794230 1.053554 -0.151174
-0.787050 1.051672 -0.151267
-0.781138 1.051714 -0.151537
-0.778540 1.056734 -0.152229
-0.774093 1.059194 -0.152741
-0.770360 1.062854 -0.153373
-0.767116 1.067405 -0.154100
-0.765921 1.075245 -0.155118
-0.762001 1.079098 -0.155834
-0.756891 1.081234 -0.156429
-0.751825 1.083530 -0.157055
-0.750309 1.091549 -0.158172
-0.745013 1.093700 -0.158819
-0.740930 1.097884 -0.159650
-0.736734 1.101983 -0.160488
-0.733652 1.108018 -0.161502
-0.729185 1.111861 -0.162342
-0.725033 1.116309 -0.163242
-0.722713 1.123964 -0.164428
-0.717251 1.126334 -0.165166
-0.711849 1.128828 -0.165918
-0.708396 1.134779 -0.166976
-0.703911 1.138976 -0.167886
-0.699082 1.142597 -0.168746
-0.694346 1.146415 -0.169625
-0.690463 1.151834 -0.170649
-0.687273 1.158610 -0.171797
-0.683119 1.163653 -0.172789
-0.678506 1.167866 -0.173705
-0.674485 1.173252 -0.174727
-0.671209 1.180145 -0.175887
-0.666061 1.183418 -0.176712
-0.661318 1.187502 -0.177608
-0.656665 1.191786 -0.178520
-0.653472 1.199087 -0.179712
-0.648648 1.203097 -0.180592
-0.643555 1.206555 -0.181415
-0.639951 1.213184 -0.182536
-0.635028 1.217052 -0.183391
-0.630631 1.222082 -0.184352
-0.626485 1.227706 -0.185367
-0.621692 1.231942 -0.186244
-0.618823 1.240559 -0.187543
-0.615134 1.247434 -0.188670
-0.609840 1.250677 -0.189439
-0.604613 1.254078 -0.190218
-0.599054 1.256696 -0.190914
-0.594467 1.261649 -0.191837
-0.589916 1.266745 -0.192769
-0.585899 1.273221 -0.193835
-0.580845 1.277188 -0.194648
-0.577652 1.285931 -0.195935
-0.572382 1.289471 -0.196697
-0.567200 1.293264 -0.197480
-0.562147 1.297431 -0.198296
-0.557483 1.302693 -0.199220
-0.552490 1.307132 -0.200056
-0.548265 1.313760 -0.201113
-0.543140 1.317978 -0.201920
-0.537463 1.320676 -0.202566
-0.533315 1.327814 -0.203667
-0.530575 1.339247 -0.205210
-0.525620 1.344344 -0.206097
-0.519692 1.346580 -0.206683
-0.513935 1.349350 -0.207320
-0.509805 1.357237 -0.208488
-0.504688 1.362173 -0.209346
-0.497221 1.359611 -0.209413
-0.494484 1.372447 -0.211096
-0.491292 1.384134 -0.212660
-0.483138 1.379290 -0.212474
-0.478050 1.384822 -0.213383
-0.478523 1.410056 -0.216384
-0.474980 1.421750 -0.217950
-0.466246 1.414880 -0.217534
-0.459202 1.413972 -0.217750
-0.453354 1.417500 -0.218436
-0.450997 1.434560 -0.220574
-0.445524 1.439985 -0.221463
-0.440508 1.447395 -0.222565
-0.434981 1.452963 -0.223467
-0.429357 1.458294 -0.224342
-0.423432 1.462512 -0.225095
-0.418081 1.469352 -0.226131
-0.412199 1.474074 -0.226937
-0.406732 1.480835 -0.227963
-0.401560 1.489220 -0.229166
-0.395892 1.495577 -0.230148
-0.389957 1.500887 -0.231014
-0.383978 1.506180 -0.231878
-0.378129 1.512341 -0.232836
-0.372417 1.519477 -0.233902
-0.367004 1.528537 -0.235180
-0.360945 1.534460 -0.236111
-0.354595 1.539011 -0.236890
-0.348391 1.544609 -0.237785
-0.342297 1.551134 -0.238782
-0.336905 1.562305 -0.240297
-0.330572 1.568136 -0.241217
-0.323920 1.572189 -0.241939
-0.317043 1.574931 -0.242513
-0.310296 1.578700 -0.243201
-0.303645 1.583365 -0.243989
-0.302741 1.631233 -0.249634
-0.296132 1.638387 -0.250708
-0.286398 1.620896 -0.249003
-0.279717 1.627482 -0.250009
-0.273553 1.639044 -0.251579
-0.266758 1.645808 -0.252607
-0.262837 1.680361 -0.256787
-0.255679 1.685965 -0.257688
-0.248761 1.694542 -0.258927
-0.241247 1.697410 -0.259517
-0.233891 1.702342 -0.260340
-0.227196 1.715841 -0.262142
-0.220584 1.731975 -0.264248
-0.213035 1.737200 -0.265107
-0.205812 1.747867 -0.266589
-0.198556 1.759501 -0.268184
-0.191305 1.773009 -0.269996
-0.183924 1.786355 -0.271791
-0.176044 1.791979 -0.272698
-0.168174 1.798905 -0.273754
-0.160627 1.815462 -0.275924
-0.152635 1.823611 -0.277122
-0.144834 1.840412 -0.279324
-0.136518 1.843150 -0.279896
-0.127228 1.800763 -0.275225
-0.112245 1.919962 -0.289591
-0.103533 1.924249 -0.290346
-0.094726 1.905412 -0.288401
-0.086032 1.916455 -0.289940
-0.077149 1.940278 -0.292973
-0.067981 1.969787 -0.296676
-0.059029 1.969044 -0.296837
-0.049868 1.978759 -0.298221
-0.040647 1.987279 -0.299465
-0.031293 1.997641 -0.300924
-0.022079 2.001186 -0.301580
-0.012308 2.018036 -0.303801
-0.002910 2.022849 -0.304602
0.006772 2.032533 -0.305976
0.016431 2.040076 -0.307096
0.026033 2.045389 -0.307949
0.035454 2.046990 -0.308360
0.045387 2.055909 -0.309635
0.055523 2.066451 -0.311099
0.065077 2.068074 -0.311503
0.074382 2.066373 -0.311507
0.086094 2.092785 -0.314850
0.095997 2.096458 -0.315486
0.106008 2.100831 -0.316202
0.116051 2.105037 -0.316893
0.126244 2.110228 -0.317698
0.136375 2.114315 -0.318366
0.146362 2.116717 -0.318828
0.156097 2.116724 -0.318998
0.165644 2.115113 -0.318969
0.175019 2.112181 -0.318776
0.184525 2.110340 -0.318706
0.194062 2.108752 -0.318661
0.203725 2.108049 -0.318715
0.212363 2.100318 -0.317919
0.221440 2.095848 -0.317507
0.230566 2.091850 -0.317145
0.239588 2.087326 -0.316712
0.247896 2.078652 -0.315773
0.256732 2.073430 -0.315241
0.265652 2.068845 -0.314778
0.274477 2.063853 -0.314258
0.283196 2.058427 -0.313678
0.291505 2.050989 -0.312848
0.301089 2.050324 -0.312826
0.308804 2.040209 -0.311657
0.317280 2.034159 -0.310970
0.325735 2.028153 -0.310280
0.334116 2.021940 -0.309557
0.342401 2.015428 -0.308790
0.350392 2.007748 -0.307873
0.358672 2.001520 -0.307124
0.366530 1.993611 -0.306163
0.374463 1.986201 -0.305255
0.383358 1.982894 -0.304833
0.392659 1.981202 -0.304598
0.402526 1.981658 -0.304613
0.411787 1.979616 -0.304320
0.419552 1.971849 -0.303329
0.427644 1.965442 -0.302494
0.434999 1.956449 -0.301340
0.441646 1.945111 -0.299898
0.450990 1.943513 -0.299621
0.455236 1.924256 -0.297214
0.459563 1.905818 -0.294900
0.462730 1.884032 -0.292180
0.472613 1.884838 -0.292169
0.482064 1.884112 -0.291969
0.490736 1.880831 -0.291457
0.498530 1.874817 -0.290614
0.505809 1.867324 -0.289591
0.513347 1.860758 -0.288678
0.520254 1.852444 -0.287554
0.527284 1.844676 -0.286496
0.535447 1.840335 -0.285849
0.543501 1.835767 -0.285176
0.550065 1.827143 -0.284022
0.556855 1.819367 -0.282975
0.563198 1.810597 -0.281814
0.570871 1.805623 -0.281114
0.576343 1.795025 -0.279752
0.584019 1.790465 -0.279120
0.594730 1.793838 -0.279444
0.596918 1.775701 -0.277220
0.608669 1.781916 -0.277910
0.615480 1.775944 -0.277165
0.623448 1.773051 -0.276805
0.629207 1.765079 -0.275860
0.636264 1.760529 -0.275342
0.643518 1.756719 -0.274935
0.650572 1.752724 -0.274529
0.658366 1.750711 -0.274384
0.666725 1.750230 -0.274447
0.676075 1.752198 -0.274829
0.682666 1.748275 -0.274536
-0.793269 1.050692 -0.156329
-0.787490 1.050855 -0.156588
-0.782948 1.052929 -0.157034
-0.779989 1.057467 -0.157713
-0.775775 1.060318 -0.158272
-0.770980 1.062439 -0.158792
-0.768604 1.068332 -0.159658
-0.763798 1.070706 -0.160242
-0.760558 1.075599 -0.161066
-0.756520 1.079403 -0.161814
-0.754644 1.086724 -0.162889
-0.750582 1.090765 -0.163694
-0.746314 1.094587 -0.164496
-0.741613 1.097809 -0.165257
-0.737400 1.101907 -0.166110
-0.732224 1.104503 -0.166838
-0.728172 1.109027 -0.167750
-0.726033 1.116864 -0.168973
-0.720427 1.118934 -0.169678
-0.716293 1.123562 -0.170624
-0.712287 1.128480 -0.171602
-0.708243 1.133399 -0.172585
-0.704083 1.138175 -0.173559
-0.699833 1.142846 -0.174526
-0.695044 1.146582 -0.175406
-0.690242 1.150319 -0.176287
-0.688076 1.158995 -0.177639
-0.683370 1.163009 -0.178547
-0.678524 1.166779 -0.179430
-0.675256 1.173612 -0.180607
-0.671203 1.178995 -0.181644
-0.666665 1.183467 -0.182590
-0.661426 1.186566 -0.183399
-0.658678 1.194701 -0.184700
-0.654100 1.199202 -0.185641
-0.648803 1.202234 -0.186432
-0.644874 1.208132 -0.187505
-0.641299 1.214844 -0.188656
-0.634464 1.214622 -0.189107
-0.630214 1.219941 -0.190111
-0.625682 1.224690 -0.191053
-0.623206 1.234067 -0.192463
-0.617858 1.237102 -0.193224
-0.613095 1.241473 -0.194117
-0.609266 1.248042 -0.195231
-0.604577 1.252678 -0.196143
-0.599329 1.256021 -0.196917
-0.594220 1.259710 -0.197722
-0.590460 1.266716 -0.198868
-0.585324 1.270419 -0.199666
-0.581031 1.276265 -0.200685
-0.577023 1.282918 -0.201786
-0.572612 1.288637 -0.202785
-0.566899 1.291035 -0.203429
-0.562569 1.297094 -0.204457
-0.558317 1.303463 -0.205516
-0.553434 1.308221 -0.206400
-0.547462 1.310027 -0.206963
-0.543714 1.318064 -0.208192
-0.538900 1.323233 -0.209110
-0.533456 1.326661 -0.209837
-0.530443 1.337269 -0.211339
-0.525402 1.342087 -0.212211
-0.519892 1.345567 -0.212935
-0.514582 1.349704 -0.213727
-0.508906 1.352765 -0.214398
-0.504320 1.359325 -0.215450
-0.501153 1.370618 -0.217020
-0.501554 1.393938 -0.219917
-0.495770 1.397334 -0.220620
-0.485157 1.384389 -0.219510
-0.479054 1.386513 -0.220062
-0.479414 1.411365 -0.223137
-0.476162 1.424126 -0.224872
-0.466464 1.413815 -0.224033
-0.460415 1.416599 -0.224651
-0.451301 1.407852 -0.223973
-0.452319 1.437722 -0.227624
-0.446211 1.440728 -0.228261
-0.440042 1.443549 -0.228876
-0.434995 1.451012 -0.230012
-0.429456 1.456677 -0.230945
-0.423585 1.461109 -0.231736
-0.417830 1.466181 -0.232599
-0.412651 1.473972 -0.233770
-0.407135 1.480527 -0.234800
-0.401329 1.485980 -0.235704
-0.396244 1.495050 -0.237021
-0.390402 1.500818 -0.237960
-0.384477 1.506401 -0.238877
-0.378742 1.513174 -0.239931
-0.372962 1.519997 -0.240990
-0.367086 1.526612 -0.242025
-0.361177 1.533340 -0.243073
-0.355073 1.539274 -0.244029
-0.348858 1.544848 -0.244943
-0.342937 1.552441 -0.246091
-0.336713 1.558563 -0.247069
-0.330800 1.566970 -0.248312
-0.324199 1.571362 -0.249088
-0.317333 1.574185 -0.249681
-0.310575 1.577902 -0.250376
-0.303669 1.580746 -0.250969
-0.303029 1.630457 -0.257053
-0.296533 1.638497 -0.258261
-0.286725 1.620513 -0.256412
-0.280776 1.633235 -0.258169
-0.274462 1.643771 -0.259669
-0.268544 1.658735 -0.261694
-0.261106 1.660592 -0.262173
-0.256270 1.688321 -0.265712
-0.249248 1.696000 -0.266883
-0.241528 1.696764 -0.267233
-0.234282 1.703005 -0.268233
-0.227165 1.711466 -0.269496
-0.220769 1.730183 -0.271982
-0.213574 1.740247 -0.273440
-0.206240 1.749587 -0.274812
-0.198932 1.760627 -0.276388
-0.191682 1.774332 -0.278285
-0.183971 1.781777 -0.279433
-0.176196 1.789236 -0.280584
-0.168581 1.801725 -0.282338
-0.160706 1.810524 -0.283651
-0.152634 1.815961 -0.284559
-0.145028 1.838157 -0.287487
-0.136768 1.842934 -0.288316
-0.127638 1.808630 -0.284421
-0.112410 1.913376 -0.297594
-0.103738 1.919986 -0.298649
-0.095027 1.934656 -0.300681
-0.086179 1.950991 -0.302917
-0.077278 1.952950 -0.303406
-0.068343 1.956423 -0.304077
-0.059232 1.968987 -0.305854
-0.050126 1.975745 -0.306923
-0.040847 1.986854 -0.308521
-0.031540 1.995495 -0.309818
-0.022147 2.004297 -0.311133
-0.012459 2.018495 -0.313109
-0.003008 2.024320 -0.314057
0.006690 2.034055 -0.315483
0.016242 2.039347 -0.316361
0.025904 2.045625 -0.317358
0.035559 2.050832 -0.318221
0.045825 2.064354 -0.320106
0.055582 2.069001 -0.320895
0.065322 2.072803 -0.321576
0.075425 2.080567 -0.322743
0.085714 2.089602 -0.324064
0.095935 2.096873 -0.325165
0.105837 2.100022 -0.325751
0.115917 2.104582 -0.326508
0.126217 2.110751 -0.327460
0.136289 2.114228 -0.328074
0.146278 2.116600 -0.328546
0.156045 2.116831 -0.328747
0.165435 2.113899 -0.328550
0.174784 2.110768 -0.328321
0.184457 2.110200 -0.328405
0.194139 2.109633 -0.328483
0.203527 2.106932 -0.328288
0.212728 2.103034 -0.327938
0.221453 2.096127 -0.327206
0.230647 2.092528 -0.326879
0.239725 2.088304 -0.326467
0.248272 2.081010 -0.325665
0.256916 2.074575 -0.324962
0.265613 2.068669 -0.324318
0.274441 2.063676 -0.323780
0.283208 2.058490 -0.323211
0.292081 2.053997 -0.322720
0.300198 2.045723 -0.321749
0.308921 2.040747 -0.321183
0.317311 2.034247 -0.320417
0.325781 2.028297 -0.319713
0.334268 2.022560 -0.319028
0.342548 2.015996 -0.318231
0.351271 2.011554 -0.317692
0.359510 2.005054 -0.316887
0.367548 1.997826 -0.315982
0.374904 1.987907 -0.314733
0.383249 1.982297 -0.314016
0.392309 1.979637 -0.313660
0.401038 1.975637 -0.313129
0.408961 1.968538 -0.312202
0.416829 1.961363 -0.311258
0.425234 1.956304 -0.310571
0.431836 1.944725 -0.309061
0.438793 1.934697 -0.307739
0.446812 1.928624 -0.306905
0.454314 1.920847 -0.305851
0.458577 1.902240 -0.303438
0.464260 1.888873 -0.301676
0.475403 1.893702 -0.302181
0.484574 1.891903 -0.301853
0.490335 1.879265 -0.300168
0.497822 1.872300 -0.299188
0.505650 1.866503 -0.298350
0.512977 1.859288 -0.297334
0.520819 1.853740 -0.296524
0.527972 1.846280 -0.295476
0.536074 1.841705 -0.294787
0.544495 1.838117 -0.294223
0.552363 1.833050 -0.293477
0.557548 1.820741 -0.291835
0.565027 1.814978 -0.291013
0.571607 1.806981 -0.289919
0.577949 1.798597 -0.288786
0.586973 1.797424 -0.288556
0.592540 1.787499 -0.287253
0.600513 1.783966 -0.286753
0.608217 1.779940 -0.286207
0.616549 1.777660 -0.285892
0.624190 1.773878 -0.285408
0.631014 1.768372 -0.284729
0.638298 1.764241 -0.284241
0.644729 1.758385 -0.283559
0.651733 1.754174 -0.283104
0.658928 1.750696 -0.282763
0.666876 1.749204 -0.282693
0.673518 1.745060 -0.282319
0.682639 1.746707 -0.282691
-0.788655 1.042614 -0.161000
-0.786501 1.047980 -0.161730
-0.783382 1.052140 -0.162376
-0.780555 1.056901 -0.163101
-0.776823 1.060499 -0.163743
-0.771803 1.062324 -0.164246
-0.768001 1.066100 -0.164949
-0.765976 1.072723 -0.165934
-0.760839 1.074752 -0.166516
-0.756922 1.078769 -0.167301
-0.754781 1.085697 -0.168374
-0.750295 1.089087 -0.169134
-0.746165 1.093143 -0.169970
-0.742710 1.098393 -0.170934
-0.737418 1.100761 -0.171636
-0.732078 1.103101 -0.172345
-0.728944 1.109163 -0.173420
-0.723790 1.111936 -0.174187
-0.720858 1.118533 -0.175330
-0.716793 1.123292 -0.176303
-0.713167 1.128886 -0.177363
-0.708265 1.132314 -0.178214
-0.704123 1.137123 -0.179205
-0.699775 1.141617 -0.180167
-0.695379 1.146069 -0.181126
-0.691530 1.151567 -0.182191
-0.687747 1.157249 -0.183275
-0.683545 1.162203 -0.184286
-0.679282 1.167084 -0.185289
-0.675356 1.172655 -0.186361
-0.671659 1.178729 -0.187484
-0.667058 1.183080 -0.188428
-0.663317 1.189174 -0.189550
-0.658266 1.192683 -0.190402
-0.653770 1.197332 -0.191368
-0.649477 1.202430 -0.192378
-0.644238 1.205584 -0.193181
-0.640867 1.212697 -0.194397
-0.635873 1.216415 -0.195251
-0.630771 1.219907 -0.196077
-0.627223 1.226826 -0.197263
-0.623501 1.233448 -0.198415
-0.618630 1.237556 -0.199295
-0.613443 1.240967 -0.200096
-0.610495 1.249570 -0.201452
-0.605240 1.252900 -0.202236
-0.599851 1.255916 -0.202980
-0.594932 1.260067 -0.203844
-0.589905 1.263982 -0.204677
-0.587632 1.274741 -0.206257
-0.581764 1.276696 -0.206868
-0.576264 1.279562 -0.207574
-0.571684 1.284801 -0.208539
-0.567895 1.292183 -0.209737
-0.563384 1.297781 -0.210735
-0.558368 1.302107 -0.211589
-0.554192 1.308779 -0.212701
-0.550420 1.316687 -0.213950
-0.545479 1.321474 -0.214846
-0.539660 1.323835 -0.215466
-0.534651 1.328540 -0.216346
-0.530291 1.335223 -0.217447
-0.525412 1.340498 -0.218387
-0.520498 1.345764 -0.219323
-0.514591 1.348080 -0.219920
-0.509461 1.352829 -0.220791
-0.503975 1.356541 -0.221541
-0.501183 1.368997 -0.223293
-0.503697 1.399203 -0.227087
-0.496007 1.396344 -0.227080
-0.485557 1.383973 -0.225967
-0.480638 1.390186 -0.226996
-0.477401 1.402465 -0.228727
-0.471723 1.406399 -0.229489
-0.466875 1.413440 -0.230611
-0.459377 1.410868 -0.230611
-0.459393 1.436491 -0.233901
-0.454527 1.444264 -0.235108
-0.446768 1.440941 -0.235014
-0.440330 1.442714 -0.235513
-0.435234 1.449974 -0.236656
-0.429607 1.455264 -0.237566
-0.424085 1.461171 -0.238547
-0.418824 1.468403 -0.239685
-0.413822 1.477040 -0.240989
-0.407652 1.480719 -0.241704
-0.402310 1.488346 -0.242888
-0.396527 1.494184 -0.243859
-0.390662 1.499842 -0.244807
-0.384788 1.505679 -0.245777
-0.378873 1.511539 -0.246749
-0.373394 1.519914 -0.248021
-0.367351 1.525655 -0.248979
-0.361475 1.532565 -0.250076
-0.355607 1.539841 -0.251218
-0.349688 1.547173 -0.252366
-0.343252 1.551790 -0.253187
-0.337233 1.559188 -0.254344
-0.331069 1.566059 -0.255437
-0.324770 1.572422 -0.256469
-0.317785 1.574531 -0.256985
-0.310868 1.577192 -0.257567
-0.304067 1.580814 -0.258264
-0.301795 1.618345 -0.263095
-0.296956 1.638767 -0.265847
-0.288475 1.631515 -0.265221
-0.281641 1.637338 -0.266192
-0.276242 1.656018 -0.268738
-0.269976 1.668398 -0.270516
-0.263454 1.679400 -0.272126
-0.256900 1.691050 -0.273817
-0.249255 1.692463 -0.274249
-0.241717 1.695123 -0.274834
-0.234704 1.704023 -0.276188
-0.228097 1.718808 -0.278271
-0.221082 1.730046 -0.279917
-0.213755 1.738379 -0.281205
-0.206301 1.745909 -0.282394
-0.198913 1.755517 -0.283841
-0.191797 1.771184 -0.286043
-0.184206 1.780687 -0.287480
-0.176588 1.791365 -0.289064
-0.169082 1.806664 -0.291227
-0.161038 1.811974 -0.292143
-0.153087 1.821205 -0.293549
-0.145532 1.846012 -0.296908
-0.137079 1.845066 -0.297041
-0.128371 1.831565 -0.295595
-0.120378 1.853164 -0.298555
-0.112454 1.896970 -0.304313
-0.103836 1.901525 -0.305137
-0.095226 1.924063 -0.308226
-0.086436 1.933174 -0.309625
-0.077521 1.948523 -0.311811
-0.068543 1.957074 -0.313138
-0.059466 1.966881 -0.314625
-0.050324 1.975509 -0.315961
-0.040886 1.992702 -0.318383
-0.031742 1.994739 -0.318882
-0.022475 1.999805 -0.319763
-0.012795 2.014202 -0.321829
-0.003443 2.018039 -0.322551
0.006370 2.030628 -0.324386
