ply
format ascii 1.0
comment ---
element vertex 1659
property float x
property float y
property float z
element face 0
property list uchar uint vertex_indices
end_header
-0.944872 0.907814 -0.694519
-0.940358 0.911859 -0.695924
-0.935822 0.915910 -0.697323
-0.933281 0.922628 -0.700538
-0.927899 0.925637 -0.701211
-0.922841 0.929086 -0.702184
-0.917581 0.932268 -0.702974
-0.913398 0.936938 -0.704774
-0.907506 0.939254 -0.704980
-0.903596 0.944346 -0.707066
-0.899573 0.949314 -0.709069
-0.895385 0.954080 -0.710935
-0.891342 0.959087 -0.712965
-0.889458 0.967319 -0.717155
-0.882456 0.968005 -0.716301
-0.876921 0.970842 -0.716895
-0.873665 0.977149 -0.719806
-0.869286 0.981783 -0.721608
-0.864982 0.986556 -0.723507
-0.861324 0.992382 -0.726107
-0.857273 0.997632 -0.728330
-0.850278 0.998143 -0.727437
-0.847664 1.005776 -0.731242
-0.843696 1.011260 -0.733636
-0.838364 1.014495 -0.734562
-0.834489 1.020206 -0.737116
-0.830801 1.026297 -0.739921
-0.825451 1.029553 -0.740884
-0.820330 1.033211 -0.742118
-0.816640 1.039438 -0.745028
-0.812984 1.045801 -0.748029
-0.806423 1.046913 -0.747635
-0.804317 1.056249 -0.752568
-0.800415 1.062364 -0.755419
-0.794400 1.064529 -0.755730
-0.791586 1.072850 -0.760010
-0.786263 1.076403 -0.761228
-0.781184 1.080456 -0.762773
-0.776963 1.086257 -0.765445
-0.772386 1.091416 -0.767709
-0.766117 1.093145 -0.767789
-0.761354 1.097995 -0.769868
-0.755714 1.101042 -0.770805
-0.753329 1.111090 -0.776197
-0.748548 1.116126 -0.778405
-0.743348 1.120305 -0.780073
-0.738585 1.125506 -0.782393
-0.734501 1.132328 -0.785741
-0.729959 1.138219 -0.788502
-0.724331 1.141667 -0.789726
-0.719065 1.146006 -0.791515
-0.713651 1.150046 -0.793122
-0.709041 1.156100 -0.795997
-0.704105 1.161461 -0.798439
-0.699219 1.167042 -0.801021
-0.694492 1.173137 -0.803925
-0.689882 1.179655 -0.807095
-0.685226 1.186190 -0.810276
-0.680825 1.193552 -0.813972
-0.676479 1.201235 -0.817867
-0.670447 1.204425 -0.818967
-0.664483 1.207847 -0.820216
-0.658858 1.212285 -0.822100
-0.653830 1.218548 -0.825116
-0.648071 1.222792 -0.826883
-0.642539 1.227804 -0.829128
-0.637080 1.233150 -0.831580
-0.632119 1.240185 -0.835076
-0.626845 1.246413 -0.838073
-0.621385 1.252198 -0.840797
-0.615987 1.258341 -0.843742
-0.610764 1.265246 -0.847154
-0.604646 1.269270 -0.848798
-0.599196 1.275732 -0.851939
-0.593412 1.281189 -0.854464
-0.587459 1.286183 -0.856706
-0.581668 1.291924 -0.859406
-0.576336 1.299601 -0.863288
-0.570285 1.304730 -0.865615
-0.564338 1.310432 -0.868291
-0.559273 1.319935 -0.873280
-0.553241 1.325758 -0.876028
-0.547498 1.333029 -0.879656
-0.541078 1.337602 -0.881646
-0.535199 1.344767 -0.885209
-0.529070 1.351067 -0.888247
-0.522817 1.357034 -0.891082
-0.516603 1.363432 -0.894180
-0.510256 1.369442 -0.897042
-0.504035 1.376360 -0.900453
-0.498467 1.387068 -0.906147
-0.491925 1.393011 -0.908967
-0.485335 1.398969 -0.911798
-0.478782 1.405433 -0.914933
-0.472300 1.412672 -0.918533
-0.465911 1.420884 -0.922718
-0.459488 1.429369 -0.927064
-0.452846 1.436918 -0.930849
-0.446570 1.447478 -0.936435
-0.439250 1.451269 -0.937971
-0.432167 1.457042 -0.940696
-0.424134 1.455809 -0.939240
-0.415824 1.452124 -0.936332
-0.409054 1.461095 -0.940976
-0.399874 1.449342 -0.933281
-0.373786 1.504600 -0.963386
-0.365619 1.503186 -0.961871
-0.354132 1.564452 -0.996822
-0.307791 1.466452 -0.935707
-0.300237 1.472043 -0.938413
-0.285831 1.510421 -0.959855
-0.254331 1.562076 -0.987935
-0.229360 1.583844 -0.999055
-0.169214 1.613030 -1.012605
-0.160394 1.617757 -1.014903
-0.143262 1.268572 -0.809382
-0.137030 1.261462 -0.804937
-0.130573 1.257777 -0.802498
-0.124384 1.251458 -0.798538
-0.117668 1.251206 -0.798119
-0.111472 1.245748 -0.794683
-0.104691 1.246204 -0.794696
-0.096185 1.261827 -0.803528
-0.087758 1.275228 -0.811074
-0.080196 1.280331 -0.813806
-0.073394 1.279001 -0.812811
-0.066088 1.281419 -0.814001
-0.060890 1.268479 -0.806289
-0.054429 1.265105 -0.804137
-0.047389 1.265722 -0.804308
-0.039666 1.270570 -0.806938
-0.032263 1.273026 -0.808187
-0.024911 1.274933 -0.809124
-0.018579 1.270743 -0.806535
-0.012644 1.264524 -0.802777
-0.006966 1.257221 -0.798396
-0.001414 1.249624 -0.793851
0.005064 1.247153 -0.792276
0.011608 1.245111 -0.790951
0.019108 1.247775 -0.792350
0.028126 1.257436 -0.797794
0.034355 1.253774 -0.795529
0.040991 1.252117 -0.794421
0.047744 1.251064 -0.793657
0.056037 1.256646 -0.796721
0.065155 1.265439 -0.801631
0.071382 1.262115 -0.799529
0.077729 1.259477 -0.797813
0.085306 1.261816 -0.798957
0.092402 1.262313 -0.799022
0.101171 1.269143 -0.802722
0.109647 1.274741 -0.805690
0.118050 1.279995 -0.808436
0.124753 1.279214 -0.807678
0.131675 1.279385 -0.807444
0.138442 1.279198 -0.806976
0.146097 1.282170 -0.808297
0.152807 1.282149 -0.807865
0.157628 1.276266 -0.804032
0.166072 1.282270 -0.806998
0.174113 1.287065 -0.809231
0.181645 1.290395 -0.810584
0.189060 1.293529 -0.811787
0.196446 1.296745 -0.812996
0.205124 1.303932 -0.816437
0.211536 1.304632 -0.816126
0.219783 1.310834 -0.818917
0.227172 1.314733 -0.820351
0.235114 1.320358 -0.822726
0.246649 1.336010 -0.830763
0.257608 1.350006 -0.837801
-0.896493 0.656002 -0.547364
-0.891881 0.656324 -0.547238
-0.888131 0.657586 -0.547755
-0.884980 0.659542 -0.548734
-0.883062 0.662852 -0.550653
-0.881108 0.666243 -0.552586
-0.878073 0.668631 -0.553748
-0.875261 0.671350 -0.555106
-0.871263 0.672921 -0.555593
-0.868005 0.675361 -0.556665
-0.863195 0.676225 -0.556562
-0.859650 0.678523 -0.557453
-0.856044 0.680837 -0.558317
-0.853063 0.683923 -0.559697
-1.007804 0.879963 -0.696634
-0.988758 0.866785 -0.686059
-1.000548 0.889149 -0.700706
-1.004323 0.902576 -0.708938
-0.999707 0.906338 -0.710283
-0.968492 0.887487 -0.694333
-0.959745 0.886121 -0.692039
-0.957876 0.893195 -0.695650
-0.955418 0.899655 -0.698804
-0.950363 0.902940 -0.699720
-0.946261 0.907469 -0.701490
-0.941688 0.911444 -0.702861
-0.937193 0.915555 -0.704316
-0.932937 0.920016 -0.706005
-0.928635 0.924455 -0.707672
-0.923510 0.927821 -0.708593
-0.918642 0.931544 -0.709760
-0.914434 0.936194 -0.711559
-0.912673 0.944284 -0.715710
-0.906954 0.946906 -0.716119
-0.901351 0.949677 -0.716634
-0.898041 0.955739 -0.719392
-0.892290 0.958301 -0.719776
-0.887959 0.962935 -0.721569
-0.884070 0.968255 -0.723830
-0.879544 0.972653 -0.725471
-0.873450 0.974675 -0.725520
-0.872611 0.984781 -0.731005
-0.866168 0.986280 -0.730717
-0.862302 0.991805 -0.733133
-0.857145 0.995312 -0.734207
-0.852271 0.999274 -0.735593
-0.847616 1.003605 -0.737232
-0.844123 1.009884 -0.740170
-0.838973 1.013449 -0.741314
-0.834433 1.018051 -0.743153
-0.831191 1.024918 -0.746492
-0.826267 1.028939 -0.747959
-0.821433 1.033135 -0.749549
-0.816756 1.037635 -0.751345
-0.813481 1.044698 -0.754828
-0.809668 1.050873 -0.757732
-0.805163 1.055841 -0.759850
-0.799645 1.058953 -0.760763
-0.795267 1.064232 -0.763097
-0.790408 1.068643 -0.764871
-0.786392 1.074733 -0.767742
-0.781087 1.078356 -0.769017
-0.776586 1.083610 -0.771354
-0.771756 1.088257 -0.773305
-0.767060 1.093228 -0.775469
-0.760959 1.095326 -0.775788
-0.758121 1.104309 -0.780545
-0.752624 1.107761 -0.781747
-0.748803 1.114880 -0.785306
-0.743839 1.119602 -0.787332
-0.738497 1.123542 -0.788862
-0.733578 1.128477 -0.791033
-0.730291 1.137240 -0.795650
-0.724811 1.141066 -0.797119
-0.718825 1.143734 -0.797857
-0.714089 1.149413 -0.800514
-0.708141 1.152235 -0.801362
-0.704283 1.160252 -0.805508
-0.699346 1.165728 -0.808043
-0.694663 1.171955 -0.811056
-0.690233 1.178966 -0.814564
-0.685735 1.185949 -0.818055
-0.680999 1.192453 -0.821242
-0.675755 1.197714 -0.823649
-0.669928 1.201461 -0.825106
-0.664185 1.205504 -0.826753
-0.659258 1.211952 -0.829911
-0.653700 1.216712 -0.832012
-0.648303 1.222047 -0.834475
-0.642602 1.226585 -0.836442
-0.637413 1.232789 -0.839451
-0.632384 1.239651 -0.842870
-0.626905 1.245266 -0.845511
-0.621191 1.250258 -0.847766
-0.616112 1.257475 -0.851405
-0.610943 1.264597 -0.854983
-0.604526 1.267632 -0.856028
-0.598514 1.272142 -0.857989
-0.593757 1.281267 -0.862806
-0.587847 1.286478 -0.865202
-0.582021 1.292157 -0.867888
-0.576474 1.299075 -0.871338
-0.570843 1.305898 -0.874728
-0.565000 1.312106 -0.877739
-0.559182 1.318631 -0.880945
-0.553909 1.327669 -0.885694
-0.547291 1.331300 -0.887123
-0.541258 1.337604 -0.890192
-0.535472 1.345263 -0.894091
-0.529198 1.350984 -0.896803
-0.522823 1.356444 -0.899357
-0.516535 1.362549 -0.902305
-0.510317 1.369262 -0.905624
-0.504878 1.380293 -0.911575
-0.499040 1.389768 -0.916574
-0.492190 1.394205 -0.918504
-0.485240 1.398270 -0.920212
-0.478749 1.405174 -0.923646
-0.472371 1.413129 -0.927717
-0.466597 1.425295 -0.934341
-0.459566 1.430138 -0.936524
-0.453133 1.439231 -0.941281
-0.446273 1.445967 -0.944612
-0.439354 1.452709 -0.947947
-0.431926 1.456104 -0.949263
-0.423761 1.453939 -0.947231
-0.413679 1.435882 -0.935633
-0.391377 1.444622 -0.938808
-0.381852 1.507324 -0.975088
-0.355477 1.480582 -0.957022
-0.351983 1.540146 -0.992010
-0.321813 1.445926 -0.933766
-0.315363 1.469750 -0.947376
-0.300570 1.490322 -0.958434
-0.292874 1.496780 -0.961686
-0.286339 1.542108 -0.988072
-0.277737 1.526944 -0.978460
-0.269757 1.533735 -0.981917
-0.245246 1.524849 -0.974964
-0.193174 1.649893 -1.045835
-0.129873 1.256383 -0.809467
-0.123540 1.251539 -0.806338
-0.117235 1.246840 -0.803306
-0.110878 1.243040 -0.800813
-0.104309 1.241472 -0.799643
-0.097411 1.242851 -0.800212
-0.091434 1.236250 -0.796106
-0.081418 1.262628 -0.811363
-0.073657 1.269297 -0.815058
-0.068644 1.254991 -0.806459
-0.061974 1.253482 -0.805376
-0.054557 1.257101 -0.807307
-0.048029 1.254513 -0.805606
-0.041264 1.253518 -0.804847
-0.033726 1.257260 -0.806869
-0.025701 1.263573 -0.810401
-0.017731 1.269092 -0.813473
-0.013055 1.255854 -0.805568
-0.006779 1.251997 -0.803160
-0.000541 1.248117 -0.800742
0.004953 1.240620 -0.796211
0.010913 1.235819 -0.793260
0.016370 1.228825 -0.789027
0.024291 1.233745 -0.791758
0.032386 1.239203 -0.794801
0.039232 1.238827 -0.794428
0.046859 1.241882 -0.796055
0.054268 1.243894 -0.797063
0.060356 1.240372 -0.794830
0.067884 1.242905 -0.796122
0.076712 1.250548 -0.800383
0.083969 1.251850 -0.800927
0.091759 1.255216 -0.802658
0.100513 1.262143 -0.806445
0.109704 1.270509 -0.811047
0.116698 1.270839 -0.810941
0.123015 1.268939 -0.809511
0.129825 1.268974 -0.809182
0.137533 1.272225 -0.810696
0.143699 1.270441 -0.809250
0.146718 1.258649 -0.801959
0.156078 1.267824 -0.806820
0.163999 1.272385 -0.808963
0.172743 1.279596 -0.812604
0.179670 1.281275 -0.812997
0.186775 1.283696 -0.813781
0.194572 1.288364 -0.815826
0.201537 1.290730 -0.816499
0.208427 1.293088 -0.817126
0.212841 1.288597 -0.813763
0.220603 1.293925 -0.816025
0.229057 1.301316 -0.819432
0.238602 1.311801 -0.824570
0.243570 1.309899 -0.822547
-0.902646 0.656453 -0.553131
-0.896175 0.654844 -0.551642
-0.893466 0.657026 -0.552902
-0.889299 0.657845 -0.553118
-0.886043 0.659667 -0.554029
-0.883266 0.662071 -0.555324
-0.881729 0.665852 -0.557584
-0.878729 0.668241 -0.558779
-0.874890 0.669854 -0.559364
-0.872526 0.673106 -0.561103
-0.869452 0.675713 -0.562328
-0.865675 0.677664 -0.563032
-0.861616 0.679390 -0.563534
-0.857311 0.680923 -0.563857
-0.853088 0.682614 -0.564258
-1.014272 0.885474 -0.707715
-1.009617 0.888866 -0.708938
-1.002142 0.889076 -0.707840
-1.006637 0.903307 -0.716755
-1.003232 0.908493 -0.719143
-0.984920 0.895983 -0.708876
-0.972249 0.890007 -0.703280
-0.962061 0.886917 -0.699737
-0.958154 0.891478 -0.701614
-0.955353 0.897485 -0.704490
-0.951697 0.902513 -0.706651
-0.947032 0.906325 -0.707937
-0.942449 0.910282 -0.709313
-0.937795 0.914184 -0.710638
-0.934189 0.919496 -0.712941
-0.928747 0.922428 -0.713571
-0.922914 0.924838 -0.713837
-0.918998 0.929843 -0.715905
-0.914746 0.934431 -0.717679
-0.912726 0.942156 -0.721619
-0.909473 0.948250 -0.724423
-0.904018 0.951275 -0.725109
-0.895623 0.950064 -0.722889
-0.893768 0.958261 -0.727140
-0.888274 0.961212 -0.727792
-0.882941 0.964390 -0.728606
-0.880304 0.971619 -0.732190
-0.876649 0.977385 -0.734774
-0.871152 0.980362 -0.735468
-0.867217 0.985761 -0.737812
-0.862239 0.989557 -0.739076
-0.857497 0.993736 -0.740606
-0.853250 0.998730 -0.742692
-0.848891 1.003576 -0.744684
-0.843290 1.006397 -0.745323
-0.839075 1.011525 -0.747518
-0.835242 1.017342 -0.750179
-0.830974 1.022469 -0.752384
-0.826576 1.027415 -0.754473
-0.821728 1.031608 -0.756067
-0.817515 1.036952 -0.758434
-0.813810 1.043266 -0.761448
-0.809770 1.049045 -0.764111
-0.804573 1.052748 -0.765407
-0.799528 1.056748 -0.766908
-0.794850 1.061469 -0.768890
-0.790647 1.067145 -0.771507
-0.786582 1.073160 -0.774349
-0.780415 1.075102 -0.774527
-0.776918 1.082360 -0.778194
-0.771712 1.086270 -0.779674
-0.766457 1.090106 -0.781112
-0.764062 1.099926 -0.786456
-0.757490 1.101121 -0.786185
-0.754721 1.110414 -0.791185
-0.749581 1.114742 -0.792962
-0.743821 1.117754 -0.793892
-0.738737 1.122287 -0.795814
-0.734754 1.129367 -0.799385
-0.729731 1.134190 -0.801501
-0.725338 1.140550 -0.804610
-0.719807 1.144333 -0.806064
-0.714215 1.148010 -0.807456
-0.710226 1.155633 -0.811383
-0.705639 1.161937 -0.814465
-0.700154 1.166107 -0.816182
-0.695923 1.173537 -0.819987
-0.690674 1.178490 -0.822210
-0.685366 1.183376 -0.824394
-0.680177 1.188666 -0.826838
-0.674791 1.193524 -0.829009
-0.669256 1.198059 -0.830978
-0.665010 1.206306 -0.835304
-0.659770 1.211920 -0.837959
-0.654737 1.218259 -0.841075
-0.649565 1.224337 -0.844025
-0.643371 1.227477 -0.845123
-0.638148 1.233644 -0.848133
-0.632911 1.239925 -0.851214
-0.627066 1.244429 -0.853179
-0.621611 1.250299 -0.856004
-0.616679 1.258052 -0.860013
-0.610678 1.262432 -0.861903
-0.604883 1.267626 -0.864307
-0.599125 1.273084 -0.866877
-0.593803 1.280260 -0.870522
-0.588035 1.286031 -0.873288
-0.582242 1.291882 -0.876105
-0.576939 1.299787 -0.880202
-0.571185 1.306207 -0.883372
-0.564936 1.310870 -0.885450
-0.559484 1.318929 -0.889640
-0.553603 1.325495 -0.892900
-0.547374 1.330815 -0.895388
-0.541147 1.336327 -0.897996
-0.535218 1.343379 -0.901559
-0.528864 1.348757 -0.904085
-0.522605 1.354791 -0.907018
-0.516389 1.361285 -0.910236
-0.510474 1.369566 -0.914554
-0.505081 1.380930 -0.920770
-0.498815 1.388247 -0.924491
-0.491966 1.392739 -0.926474
-0.484969 1.396587 -0.928065
-0.479268 1.408139 -0.934386
-0.472464 1.413737 -0.937052
-0.465843 1.420772 -0.940601
-0.459388 1.429277 -0.945048
-0.452344 1.434385 -0.947418
-0.446477 1.447940 -0.954952
-0.439110 1.451677 -0.956486
-0.432593 1.461987 -0.962034
-0.422792 1.447451 -0.952438
-0.413299 1.434040 -0.943550
-0.406509 1.442340 -0.947892
-0.399311 1.447696 -0.950446
-0.382995 1.440843 -0.944900
-0.377273 1.462149 -0.957145
-0.370844 1.478076 -0.966119
-0.353012 1.453499 -0.949903
-0.322517 1.464654 -0.954097
-0.309472 1.519865 -0.986140
-0.302134 1.538452 -0.996712
-0.293790 1.534846 -0.993926
-0.285725 1.538844 -0.995725
-0.277530 1.539377 -0.995449
-0.244506 1.497055 -0.967800
-0.236510 1.513780 -0.977292
-0.115485 1.255882 -0.816450
-0.110059 1.242404 -0.808187
-0.103698 1.238788 -0.805794
-0.097673 1.232457 -0.801800
-0.091862 1.224815 -0.797040
-0.085532 1.221889 -0.795087
-0.079797 1.214551 -0.790529
-0.072983 1.215647 -0.790981
-0.061341 1.250689 -0.811555
-0.055219 1.245456 -0.808266
-0.048508 1.244377 -0.807447
-0.042600 1.238219 -0.803627
-0.036455 1.233844 -0.800871
-0.029808 1.232649 -0.800003
-0.021915 1.238598 -0.803369
-0.014335 1.242380 -0.805454
-0.007112 1.243959 -0.806238
-0.000945 1.239891 -0.803686
0.005236 1.236089 -0.801292
0.009948 1.225227 -0.794726
0.015859 1.220677 -0.791892
0.022462 1.219596 -0.791106
0.029852 1.222149 -0.792464
0.037418 1.225371 -0.794211
0.044246 1.225264 -0.793984
0.052475 1.231119 -0.797269
0.057667 1.224212 -0.793009
0.067179 1.235114 -0.799249
0.073979 1.234905 -0.798916
0.082046 1.239691 -0.801513
0.091009 1.247768 -0.806031
0.098941 1.251814 -0.808149
0.107736 1.258964 -0.812073
0.115426 1.262051 -0.813577
0.119976 1.254203 -0.808618
0.127626 1.257461 -0.810169
0.135827 1.262640 -0.812818
0.141573 1.259715 -0.810672
0.146135 1.253244 -0.806412
0.152661 1.253495 -0.806070
0.162717 1.265088 -0.812344
0.170479 1.269443 -0.814331
0.176632 1.269004 -0.813471
0.183424 1.270754 -0.813855
0.190558 1.273729 -0.814915
0.196209 1.272550 -0.813509
0.200144 1.266726 -0.809357
0.206207 1.267382 -0.808952
0.214137 1.273536 -0.811709
0.223953 1.285041 -0.817532
0.233276 1.295192 -0.822516
0.240110 1.298631 -0.823559
-0.935291 0.682828 -0.578132
-0.900128 0.653193 -0.555825
-0.896334 0.654178 -0.556270
-0.892702 0.655408 -0.556856
-0.889614 0.657269 -0.557870
-0.885923 0.658616 -0.558459
-0.883924 0.661773 -0.560347
-0.882054 0.665176 -0.562372
-0.879339 0.667823 -0.563792
-0.875270 0.669162 -0.564201
-0.872505 0.671954 -0.565640
-0.870477 0.675632 -0.567688
-0.867782 0.678712 -0.569250
-0.863121 0.679770 -0.569284
-0.858635 0.681084 -0.569468
-0.854685 0.683051 -0.570093
-1.006541 0.883470 -0.712228
-0.995953 0.880014 -0.708481
-0.999387 0.892871 -0.716530
-0.994974 0.896743 -0.718023
-0.990677 0.900833 -0.719640
-0.977106 0.893836 -0.713247
-0.963625 0.886788 -0.706823
-0.958879 0.890310 -0.707982
-0.956109 0.896338 -0.710913
-0.952950 0.901975 -0.713538
-0.948408 0.905941 -0.714952
-0.943099 0.908970 -0.715684
-0.939288 0.913959 -0.717797
-0.935174 0.918611 -0.719658
-0.931781 0.924268 -0.722216
-0.925115 0.925600 -0.721719
-0.919638 0.928513 -0.722335
-0.916577 0.934738 -0.725272
-0.916054 0.944557 -0.730715
-0.910153 0.946982 -0.730979
-0.906728 0.952900 -0.733681
-0.897952 0.951201 -0.731085
-0.894569 0.957212 -0.733856
-0.888743 0.959695 -0.734184
-0.883939 0.963673 -0.735552
-0.882300 0.972421 -0.740212
-0.877545 0.976551 -0.741689
-0.872616 0.980428 -0.742997
-0.867741 0.984396 -0.744376
-0.862309 0.987498 -0.745169
-0.858648 0.993411 -0.747890
-0.854347 0.998349 -0.749949
-0.849243 1.002009 -0.751146
-0.843471 1.004568 -0.751604
-0.840297 1.011451 -0.755002
-0.837316 1.018744 -0.758678
-0.831378 1.021065 -0.758999
-0.827093 1.026226 -0.761245
-0.822381 1.030682 -0.763024
-0.818355 1.036386 -0.765647
-0.814263 1.042031 -0.768234
-0.809662 1.046808 -0.770246
-0.804976 1.051469 -0.772186
-0.800202 1.056001 -0.774047
-0.795869 1.061407 -0.776496
-0.791219 1.066262 -0.778583
-0.785063 1.068236 -0.778766
-0.782258 1.076785 -0.783315
-0.776585 1.079758 -0.784174
-0.772823 1.086597 -0.787596
-0.768851 1.093112 -0.790806
-0.763926 1.097747 -0.792779
-0.759513 1.103509 -0.795499
-0.755517 1.110247 -0.798863
-0.750104 1.114027 -0.800290
-0.744437 1.117278 -0.801377
-0.740338 1.124043 -0.804768
-0.734006 1.125876 -0.804942
-0.730876 1.135036 -0.809901
-0.725429 1.138995 -0.811471
-0.720121 1.143327 -0.813289
-0.715459 1.149265 -0.816154
-0.711273 1.156467 -0.819841
-0.706023 1.161187 -0.821921
-0.700920 1.166352 -0.824291
-0.696732 1.173938 -0.828229
-0.691509 1.179011 -0.830545
-0.686007 1.183440 -0.832449
-0.679949 1.186457 -0.833448
-0.674557 1.191310 -0.835633
-0.670232 1.199201 -0.839770
-0.665501 1.206148 -0.843300
-0.660148 1.211484 -0.845799
-0.655020 1.217588 -0.848791
-0.649853 1.223719 -0.851800
-0.644122 1.228298 -0.853820
-0.638505 1.233320 -0.856125
-0.633031 1.238902 -0.858789
-0.627667 1.244974 -0.861766
-0.622304 1.251208 -0.864846
-0.616603 1.256492 -0.867323
-0.610936 1.262021 -0.869958
-0.605257 1.267661 -0.872663
-0.599651 1.273715 -0.875632
-0.594106 1.280160 -0.878847
-0.588107 1.285146 -0.881142
-0.582206 1.290635 -0.883757
-0.577206 1.299734 -0.888644
-0.571168 1.305109 -0.891187
-0.564902 1.309745 -0.893266
-0.559215 1.316883 -0.896918
-0.553526 1.324276 -0.900728
-0.547412 1.330127 -0.903572
-0.541520 1.337170 -0.907162
-0.535011 1.341709 -0.909187
-0.528669 1.347179 -0.911795
-0.522475 1.353558 -0.914972
-0.516235 1.359984 -0.918178
-0.510903 1.371233 -0.924389
-0.504844 1.379302 -0.928616
-0.498311 1.385249 -0.931522
-0.491718 1.391143 -0.934397
-0.485610 1.400055 -0.939145
-0.479340 1.408512 -0.943610
-0.472450 1.413717 -0.946059
-0.465725 1.420216 -0.949311
-0.458978 1.426942 -0.952705
-0.452246 1.434171 -0.956410
-0.446971 1.451948 -0.966627
-0.439070 1.452135 -0.965985
-0.431749 1.456584 -0.967978
-0.423537 1.454365 -0.965869
-0.413201 1.434532 -0.952934
-0.406887 1.447079 -0.959932
-0.386855 1.406092 -0.933361
-0.381811 1.431424 -0.948221
-0.374483 1.435615 -0.950111
-0.366285 1.430557 -0.946342
-0.340559 1.504358 -0.988811
-0.332369 1.502536 -0.987043
-0.302050 1.547937 -1.012141
-0.293901 1.551686 -1.013797
-0.269040 1.553539 -1.013110
-0.227548 1.547227 -1.006489
-0.209120 1.655024 -1.070600
-0.191235 1.660577 -1.072895
-0.103191 1.235048 -0.811327
-0.097767 1.223529 -0.804185
-0.091526 1.219753 -0.801698
-0.085299 1.216098 -0.799294
-0.079209 1.211609 -0.796400
-0.073457 1.204921 -0.792197
-0.066743 1.205416 -0.792307
-0.060003 1.205971 -0.792460
-0.049051 1.233853 -0.808976
-0.043973 1.222759 -0.802167
-0.037027 1.223697 -0.802564
-0.029886 1.225655 -0.803577
-0.024366 1.218198 -0.798963
-0.017635 1.217829 -0.798593
-0.009702 1.223864 -0.802053
-0.002096 1.227813 -0.804267
0.003840 1.223072 -0.801288
0.009735 1.218374 -0.798335
0.016883 1.219897 -0.799097
0.024146 1.221875 -0.800127
0.029781 1.216378 -0.796689
0.036039 1.213928 -0.795065
0.042059 1.210602 -0.792910
0.047399 1.204610 -0.789157
0.058160 1.221255 -0.798897
0.064595 1.219820 -0.797837
0.072223 1.223226 -0.799649
0.079376 1.224749 -0.800320
0.084254 1.217748 -0.795893
0.096129 1.236993 -0.807079
0.101907 1.233542 -0.804722
0.110054 1.238785 -0.807516
0.115872 1.235884 -0.805437
0.125686 1.246934 -0.811623
0.134332 1.253858 -0.815322
0.140274 1.251820 -0.813663
0.145860 1.248911 -0.811455
0.152514 1.249730 -0.811426
0.159775 1.252660 -0.812613
0.168223 1.259416 -0.816025
0.172552 1.253667 -0.811997
0.178473 1.253124 -0.811014
0.185805 1.257025 -0.812618
0.192090 1.258028 -0.812472
0.196983 1.255265 -0.810066
0.202844 1.255591 -0.809446
0.212196 1.265967 -0.814697
0.222516 1.279039 -0.821480
0.229509 1.282958 -0.822840
0.233883 1.279971 -0.820116
-0.899345 0.647103 -0.556571
-0.900785 0.653070 -0.560828
-0.897999 0.655020 -0.562023
-0.893324 0.655191 -0.561840
-0.889600 0.656384 -0.562383
-0.886551 0.658342 -0.563458
-0.884391 0.661299 -0.565238
-0.881738 0.663863 -0.566678
-0.878524 0.665952 -0.567719
-0.874230 0.667010 -0.567945
-0.872208 0.670532 -0.569967
-0.870816 0.674840 -0.572528
-0.868002 0.677754 -0.574005
-0.863609 0.679065 -0.574248
-0.859237 0.680470 -0.574520
-0.855014 0.682106 -0.574926
-0.987933 0.860371 -0.702442
-0.990643 0.872012 -0.709780
-1.001935 0.893901 -0.724562
-1.003587 0.904901 -0.731294
-1.005023 0.915873 -0.737950
-0.984403 0.900577 -0.725431
-0.966885 0.888716 -0.715437
-0.961717 0.891734 -0.716249
-0.955817 0.893888 -0.716415
-0.953145 0.900104 -0.719497
-0.948031 0.903329 -0.720398
-0.942891 0.906551 -0.721285
-0.940222 0.912997 -0.724470
-0.936427 0.918065 -0.726650
-0.931975 0.922322 -0.728238
-0.926662 0.925464 -0.729023
-0.921957 0.929440 -0.730397
-0.919331 0.936285 -0.733801
-0.915143 0.941056 -0.735726
-0.911036 0.945979 -0.737754
-0.903868 0.946609 -0.736757
-0.899971 0.951861 -0.739018
-0.894674 0.955131 -0.739888
-0.889906 0.959174 -0.741303
-0.884542 0.962346 -0.742115
-0.882473 0.970453 -0.746372
-0.877970 0.974977 -0.748131
-0.873630 0.979773 -0.750084
-0.868767 0.983787 -0.751499
-0.864583 0.988880 -0.753666
-0.859371 0.992374 -0.754735
-0.854545 0.996489 -0.756239
-0.850061 1.001175 -0.758144
-0.845658 1.006023 -0.760166
-0.843292 1.014305 -0.764545
-0.838456 1.018532 -0.766150
-0.833592 1.022729 -0.767743
-0.828130 1.025910 -0.768651
-0.824286 1.031924 -0.771496
-0.819271 1.035924 -0.772977
-0.814136 1.039728 -0.774334
-0.809640 1.044706 -0.776494
-0.805461 1.050315 -0.779085
-0.800600 1.054711 -0.780864
-0.796031 1.059691 -0.783043
-0.791635 1.065053 -0.785483
-0.787698 1.071365 -0.788566
-0.781780 1.073867 -0.789102
-0.777480 1.079580 -0.791794
-0.773700 1.086421 -0.795242
-0.768747 1.090964 -0.797161
-0.763520 1.094983 -0.798738
-0.759896 1.102412 -0.802586
-0.755419 1.108148 -0.805312
-0.750284 1.112542 -0.807152
-0.745650 1.118085 -0.809758
-0.740089 1.121647 -0.811059
-0.734895 1.126065 -0.812931
-0.730849 1.133166 -0.816577
-0.725762 1.137981 -0.818719
-0.720745 1.143030 -0.821019
-0.715640 1.147947 -0.823235
-0.710366 1.152527 -0.825235
-0.706555 1.160782 -0.829645
-0.702207 1.167878 -0.833294
-0.697413 1.173989 -0.836301
-0.692370 1.179576 -0.838967
-0.686905 1.184159 -0.840983
-0.682110 1.190610 -0.844216
-0.676627 1.195334 -0.846329
-0.670920 1.199523 -0.848099
-0.665930 1.205794 -0.851221
-0.660312 1.210417 -0.853277
-0.655039 1.216128 -0.856040
-0.649654 1.221640 -0.858676
-0.644527 1.228054 -0.861895
-0.639030 1.233494 -0.864487
-0.633453 1.238811 -0.867002
-0.628365 1.245810 -0.870598
-0.622806 1.251477 -0.873340
-0.617023 1.256552 -0.875704
-0.611030 1.261045 -0.877696
-0.605756 1.268113 -0.881339
-0.600199 1.274405 -0.884485
-0.594021 1.278660 -0.886331
-0.588231 1.284440 -0.889152
-0.582432 1.290360 -0.892064
-0.577088 1.298199 -0.896197
-0.571034 1.303545 -0.898743
-0.564949 1.308932 -0.901317
-0.559251 1.316077 -0.905008
-0.553422 1.322933 -0.908515
-0.547538 1.329812 -0.912036
-0.541529 1.336406 -0.915377
-0.535305 1.342289 -0.918268
-0.528811 1.347150 -0.920515
-0.522543 1.353261 -0.923553
-0.517438 1.365289 -0.930319
-0.511094 1.371705 -0.933547
-0.504340 1.376301 -0.935632
-0.498357 1.385168 -0.940401
-0.491987 1.392380 -0.944131
-0.485616 1.399952 -0.948086
-0.478904 1.405940 -0.951049
-0.472257 1.412627 -0.954451
-0.465360 1.418135 -0.957116
-0.460138 1.434723 -0.966707
-0.453478 1.442851 -0.971007
-0.446608 1.450047 -0.974725
-0.439253 1.454229 -0.976566
-0.431503 1.455691 -0.976718
-0.422477 1.447226 -0.970702
-0.412180 1.427523 -0.957717
-0.375402 1.447967 -0.966872
-0.365357 1.423310 -0.950934
-0.360454 1.456268 -0.970647
-0.348263 1.504003 -0.998786
-0.338506 1.479735 -0.983145
-0.329364 1.460976 -0.970931
-0.309409 1.538075 -1.016492
-0.293412 1.552416 -1.024045
-0.277002 1.562107 -1.028766
-0.260166 1.556213 -1.023966
-0.243541 1.573057 -1.033138
-0.235110 1.570791 -1.031195
-0.135073 1.687276 -1.096740
-0.090519 1.220185 -0.809670
-0.084550 1.214341 -0.805919
-0.078376 1.210446 -0.803358
-0.072706 1.203114 -0.798725
-0.067303 1.194396 -0.793264
-0.061018 1.192176 -0.791744
-0.054427 1.192028 -0.791485
-0.045710 1.205110 -0.799232
-0.038154 1.210230 -0.802168
-0.030343 1.216441 -0.805766
-0.023672 1.215749 -0.805195
-0.017810 1.210609 -0.801938
-0.011505 1.208097 -0.800273
-0.006243 1.200308 -0.795422
0.002936 1.212601 -0.802700
0.009823 1.213010 -0.802798
0.015361 1.206978 -0.799005
0.024607 1.218433 -0.805764
0.030865 1.215839 -0.804037
0.035657 1.206948 -0.798504
0.040170 1.197325 -0.792524
0.045882 1.193232 -0.789870
0.055766 1.206485 -0.797661
0.059760 1.195629 -0.790905
0.066658 1.196711 -0.791330
0.077664 1.213602 -0.801256
0.086167 1.220513 -0.805147
0.091038 1.213904 -0.800877
0.095507 1.206253 -0.795959
0.103798 1.212573 -0.799421
0.113296 1.223020 -0.805330
0.124991 1.240756 -0.815582
0.131312 1.240061 -0.814728
0.136538 1.235994 -0.811818
0.143031 1.236377 -0.811547
0.151283 1.242578 -0.814725
0.157635 1.242864 -0.814321
0.160996 1.234154 -0.808500
0.168474 1.238465 -0.810431
0.175911 1.242780 -0.812323
0.183548 1.247823 -0.814607
0.191158 1.252906 -0.816870
0.197437 1.254295 -0.816891
0.203032 1.253974 -0.815857
0.211148 1.260989 -0.819141
0.219670 1.269219 -0.823100
0.224343 1.267001 -0.820822
0.214181 1.225013 -0.794991
-0.892080 0.639338 -0.555700
-0.898602 0.650189 -0.563734
-0.898157 0.654396 -0.566677
-0.894401 0.655447 -0.567181
-0.891299 0.657234 -0.568201
-0.889828 0.660757 -0.570494
-0.887806 0.663841 -0.572410
-0.883703 0.664908 -0.572753
-0.879572 0.666028 -0.573093
-0.874702 0.666457 -0.572868
-0.872592 0.669849 -0.574836
-0.869982 0.672825 -0.576444
-0.867521 0.676067 -0.578207
-0.864541 0.678858 -0.579585
-0.860161 0.680224 -0.579852
-0.857228 0.683247 -0.581320
-0.858366 0.690871 -0.586185
-0.994383 0.865931 -0.713608
-0.999690 0.880573 -0.723266
-0.996756 0.885950 -0.725989
-0.999069 0.897609 -0.733312
-0.980905 0.894352 -0.728217
-0.970067 0.890538 -0.724041
-0.963667 0.892061 -0.723773
-0.957851 0.894321 -0.724025
-0.952718 0.897457 -0.724900
-0.949093 0.902535 -0.727170
-0.944931 0.907003 -0.728975
-0.939715 0.910165 -0.729817
-0.936626 0.916129 -0.732675
-0.932713 0.921087 -0.734789
-0.927214 0.923983 -0.735405
-0.922913 0.928502 -0.737184
-0.918605 0.933052 -0.738978
-0.913968 0.937185 -0.740468
-0.908850 0.940673 -0.741495
-0.904262 0.944917 -0.743061
-0.899252 0.948584 -0.744216
-0.895854 0.954588 -0.747031
-0.890295 0.957496 -0.747651
-0.885584 0.961647 -0.749156
-0.882469 0.968203 -0.752359
-0.877969 0.972734 -0.754135
-0.872705 0.976122 -0.755114
-0.869209 0.982244 -0.758015
-0.863689 0.985257 -0.758743
-0.859309 0.990066 -0.760734
-0.855113 0.995201 -0.762957
-0.850298 0.999370 -0.764513
-0.845958 1.004337 -0.766629
-0.842453 1.010729 -0.769739
-0.838947 1.017193 -0.772899
-0.834185 1.021588 -0.774635
-0.829490 1.026122 -0.776474
-0.824808 1.030708 -0.778355
-0.819535 1.034279 -0.779547
-0.815309 1.039732 -0.782038
-0.813490 1.049614 -0.787561
-0.803746 1.045085 -0.783245
-0.800949 1.053302 -0.787639
-0.795683 1.056990 -0.788952
-0.793414 1.066425 -0.794176
-0.788119 1.070161 -0.795533
-0.783624 1.075488 -0.797975
-0.778280 1.079186 -0.799321
-0.773455 1.083952 -0.801395
-0.768550 1.088603 -0.803399
-0.765273 1.096675 -0.807709
-0.760963 1.102723 -0.810659
-0.755563 1.106538 -0.812114
-0.750462 1.111029 -0.814030
-0.745874 1.116696 -0.816738
-0.740675 1.121088 -0.818598
-0.735646 1.125915 -0.820753
-0.730914 1.131485 -0.823408
-0.726412 1.137679 -0.826481
-0.721232 1.142382 -0.828566
-0.715717 1.146354 -0.830171
-0.710666 1.151498 -0.832558
-0.707655 1.161754 -0.838328
-0.703265 1.168804 -0.841976
-0.698040 1.173877 -0.844321
-0.692731 1.178821 -0.846583
-0.687296 1.183522 -0.848690
-0.681821 1.188195 -0.850782
-0.677162 1.195161 -0.854381
-0.672034 1.200995 -0.857240
-0.666046 1.204543 -0.858604
-0.660149 1.208397 -0.860173
-0.654598 1.213319 -0.862443
-0.649909 1.220889 -0.866444
-0.644918 1.227748 -0.869980
-0.639347 1.233009 -0.872476
-0.633841 1.238594 -0.875185
-0.628109 1.243595 -0.877516
-0.622778 1.250014 -0.880770
-0.617023 1.255208 -0.883230
-0.611525 1.261401 -0.886338
-0.606269 1.268595 -0.890094
-0.600243 1.273314 -0.892251
-0.594308 1.278478 -0.894698
-0.588407 1.283911 -0.897320
-0.582611 1.289893 -0.900297
-0.576953 1.296588 -0.903733
-0.571068 1.302626 -0.906747
-0.565193 1.308901 -0.909914
-0.559653 1.316756 -0.914094
-0.553402 1.321938 -0.916561
-0.547451 1.328578 -0.919963
-0.541699 1.336344 -0.924084
-0.535412 1.342023 -0.926872
-0.528823 1.346522 -0.928908
-0.522088 1.350489 -0.930609
-0.516763 1.361452 -0.936766
-0.510660 1.369056 -0.940783
-0.504813 1.378339 -0.945865
-0.498743 1.386898 -0.950485
-0.492270 1.393698 -0.953989
-0.485190 1.397420 -0.955543
-0.478655 1.404469 -0.959208
-0.471853 1.410287 -0.962095
-0.466496 1.425405 -0.970859
-0.459712 1.432327 -0.974442
-0.453381 1.442688 -0.980195
-0.446501 1.449942 -0.983988
-0.439407 1.456143 -0.987119
-0.431427 1.456107 -0.986328
-0.421586 1.441423 -0.976340
-0.410280 1.413361 -0.957974
-0.400490 1.395542 -0.946074
-0.391079 1.450056 -0.978838
-0.360658 1.462343 -0.983733
-0.327463 1.436844 -0.965204
-0.320183 1.445014 -0.969663
-0.313780 1.471726 -0.985657
-0.307218 1.501115 -1.003303
-0.300000 1.522163 -1.015753
-0.292198 1.533085 -1.021913
-0.260040 1.591424 -1.055647
-0.225491 1.633565 -1.079394
-0.105586 1.827010 -1.192417
-0.081771 1.228428 -0.822268
-0.075032 1.228083 -0.821854
-0.072400 1.198015 -0.803265
-0.067486 1.186027 -0.795750
-0.061065 1.184930 -0.794905
-0.054207 1.186647 -0.795786
-0.048292 1.182318 -0.792978
-0.042275 1.178828 -0.790688
-0.036674 1.173093 -0.787032
-0.024334 1.205616 -0.806747
-0.018338 1.201477 -0.804069
-0.012050 1.199093 -0.802465
-0.006077 1.195197 -0.799939
-0.001344 1.185312 -0.793757
0.004538 1.181543 -0.791307
0.013690 1.193440 -0.798412
0.020214 1.192623 -0.797754
0.030404 1.208337 -0.807170
0.035260 1.199939 -0.801875
0.041201 1.196633 -0.799674
0.047116 1.193431 -0.797527
0.051601 1.184607 -0.791943
0.057979 1.183814 -0.791237
0.067033 1.193594 -0.796950
0.071576 1.185831 -0.791965
0.075959 1.177917 -0.786871
0.086966 1.194741 -0.796799
0.096075 1.204230 -0.802236
0.103111 1.206209 -0.803078
0.109795 1.207070 -0.803212
0.117640 1.212030 -0.805803
0.125708 1.217759 -0.808825
0.132214 1.218372 -0.808710
0.139036 1.220204 -0.809297
0.146604 1.224570 -0.811382
0.152908 1.225082 -0.811095
0.158447 1.223466 -0.809486
0.164617 1.224059 -0.809174
0.171469 1.226925 -0.810195
0.181176 1.238376 -0.816346
0.189558 1.245924 -0.820097
0.196079 1.248196 -0.820628
0.201778 1.248344 -0.819844
0.209643 1.254810 -0.822812
0.215591 1.256089 -0.822627
0.220606 1.255053 -0.821019
0.215097 1.225900 -0.802588
-0.902656 0.648923 -0.568029
-0.897888 0.648771 -0.567718
-0.897960 0.653445 -0.571071
-0.896312 0.656549 -0.573176
-0.894711 0.659812 -0.575359
-0.891575 0.661647 -0.576404
-0.889167 0.664313 -0.578040
-0.885765 0.666071 -0.578937
-0.881439 0.666967 -0.579131
-0.876849 0.667665 -0.579131
-0.872654 0.668849 -0.579459
-0.869786 0.671511 -0.580868
-0.867893 0.675313 -0.583098
-0.864680 0.677815 -0.584295
-0.863037 0.682113 -0.586809
-0.860277 0.685312 -0.588444
-0.861267 0.692754 -0.593243
-1.009631 0.881486 -0.732401
-1.009582 0.890080 -0.737627
-0.998941 0.886584 -0.733742
-0.998904 0.895456 -0.739080
-1.005201 0.912015 -0.750097
-1.000906 0.916255 -0.751870
-0.971316 0.890017 -0.730970
-0.963497 0.889797 -0.729418
-0.957699 0.892050 -0.729681
-0.951980 0.894428 -0.730017
-0.950272 0.901886 -0.734077
-0.944502 0.904298 -0.734397
-0.940832 0.909428 -0.736699
-0.939446 0.917603 -0.741209
-0.932324 0.918358 -0.740277
-0.927419 0.922030 -0.741469
-0.923636 0.927238 -0.743769
-0.918426 0.930560 -0.744692
-0.912482 0.932884 -0.744889
-0.908254 0.937584 -0.746804
-0.905551 0.944470 -0.750289
-0.900050 0.947458 -0.750963
-0.896527 0.953290 -0.753680
-0.889131 0.953535 -0.752395
-0.887238 0.961825 -0.756869
-0.883126 0.966919 -0.759056
-0.878085 0.970651 -0.760275
-0.873952 0.975774 -0.762489
-0.867088 0.976716 -0.761742
-0.861839 0.980124 -0.762754
-0.860200 0.989245 -0.767804
-0.858406 0.998253 -0.772768
-0.851722 0.999465 -0.772247
-0.848928 1.007008 -0.776181
-0.843717 1.010632 -0.777371
-0.839118 1.015289 -0.779292
-0.835017 1.020826 -0.781833
-0.829959 1.024764 -0.783265
-0.824529 1.028067 -0.784265
-0.821803 1.036148 -0.788589
-0.817654 1.041803 -0.791231
-0.811362 1.043632 -0.791234
-0.808252 1.051267 -0.795256
-0.801668 1.052556 -0.794908
-0.798008 1.059302 -0.798326
-0.793634 1.064781 -0.800877
-0.788856 1.069542 -0.802940
-0.785137 1.076422 -0.806459
-0.780572 1.081725 -0.808903
-0.773705 1.082457 -0.808235
-0.769139 1.087822 -0.810736
-0.765479 1.095130 -0.814563
-0.761152 1.101162 -0.817523
-0.755698 1.104887 -0.818924
-0.750912 1.110079 -0.821325
-0.746104 1.115294 -0.823746
-0.740922 1.119748 -0.825658
-0.736841 1.126735 -0.829283
-0.732037 1.132198 -0.831882
-0.726991 1.137182 -0.834165
-0.722353 1.143202 -0.837146
-0.716828 1.147210 -0.838782
-0.713372 1.156279 -0.843809
-0.708440 1.161918 -0.846542
-0.703497 1.167633 -0.849329
-0.698252 1.172686 -0.851676
-0.693065 1.177974 -0.854184
-0.687231 1.181665 -0.855633
-0.681621 1.185997 -0.857513
-0.677154 1.193494 -0.861497
-0.671945 1.199126 -0.864244
-0.666132 1.203187 -0.865955
-0.660157 1.206849 -0.867407
-0.654844 1.212486 -0.870167
-0.650360 1.220695 -0.874623
-0.645121 1.226857 -0.877731
-0.639619 1.232366 -0.880410
-0.633723 1.236781 -0.882372
-0.628208 1.242495 -0.885190
-0.622360 1.247275 -0.887398
-0.616831 1.253221 -0.890372
-0.611449 1.259820 -0.893773
-0.606358 1.267608 -0.897951
-0.600476 1.272871 -0.900481
-0.594647 1.278468 -0.903230
-0.588597 1.283420 -0.905561
-0.582496 1.288323 -0.907863
-0.576572 1.294035 -0.910692
-0.571260 1.302313 -0.915188
-0.565654 1.309721 -0.919117
-0.559619 1.315646 -0.922086
-0.553278 1.320505 -0.924366
-0.547137 1.326371 -0.927300
-0.541984 1.336783 -0.933170
-0.535746 1.342771 -0.936182
-0.528597 1.344791 -0.936639
-0.522484 1.351745 -0.940277
-0.516212 1.358220 -0.943608
-0.511444 1.372504 -0.951956
-0.504731 1.377518 -0.954347
-0.498919 1.387522 -0.959940
-0.492060 1.392337 -0.962205
-0.485493 1.399007 -0.965661
-0.478817 1.405393 -0.968937
-0.472059 1.411625 -0.972116
-0.465670 1.420494 -0.976980
-0.459629 1.432152 -0.983622
-0.452671 1.438449 -0.986843
-0.445991 1.447070 -0.991547
-0.438563 1.450894 -0.993199
-0.431785 1.459815 -0.998096
-0.423309 1.456117 -0.994980
-0.412045 1.429194 -0.977139
-0.400397 1.396347 -0.955580
-0.391854 1.459594 -0.994210
-0.367967 1.458859 -0.991614
-0.361376 1.474674 -1.000904
-0.354727 1.491836 -1.011038
-0.346064 1.483919 -1.005365
-0.328217 1.455260 -0.985999
-0.314199 1.488508 -1.005625
-0.284051 1.554988 -1.044830
-0.208840 1.540803 -1.030903
-0.069831 1.209114 -0.817801
-0.065246 1.194387 -0.808515
-0.060725 1.180241 -0.799600
-0.054523 1.177817 -0.797935
-0.048044 1.177204 -0.797395
-0.042470 1.171172 -0.793513
-0.035453 1.173821 -0.794996
-0.031382 1.159760 -0.786166
-0.023459 1.167439 -0.790758
-0.012963 1.188185 -0.803410
-0.006940 1.184832 -0.801192
-0.000635 1.183055 -0.799943
0.004979 1.178031 -0.796691
0.010035 1.170654 -0.791985
0.013970 1.158534 -0.784352
0.024829 1.178016 -0.796186
0.034590 1.191789 -0.804489
0.040951 1.190483 -0.803490
0.047193 1.188812 -0.802253
0.051307 1.178643 -0.795772
0.057146 1.175867 -0.793828
0.063804 1.176501 -0.793964
0.070916 1.178951 -0.795196
0.075809 1.173151 -0.791334
0.081428 1.170382 -0.789313
0.093304 1.190294 -0.801195
0.102450 1.200018 -0.806784
0.109028 1.200696 -0.806790
0.114305 1.197133 -0.804164
0.120927 1.198377 -0.804454
0.127870 1.200835 -0.805452
0.134994 1.204015 -0.806854
0.142974 1.210032 -0.809953
0.150247 1.213889 -0.811689
0.157492 1.217785 -0.813408
0.162034 1.213631 -0.810178
0.168415 1.215336 -0.810483
0.177492 1.225174 -0.815696
0.186735 1.235485 -0.821146
0.193848 1.239683 -0.822833
0.198914 1.238248 -0.821063
0.205422 1.241138 -0.821876
0.210696 1.240813 -0.820705
0.212730 1.231919 -0.814326
0.228735 1.261138 -0.830911
-0.898941 0.649102 -0.573034
-0.897299 0.652062 -0.575113
-0.896162 0.655631 -0.577622
-0.895690 0.659981 -0.580691
-0.891685 0.660913 -0.581071
-0.888524 0.662777 -0.582128
-0.886334 0.665728 -0.583979
-0.883864 0.668499 -0.585646
-0.877909 0.667764 -0.584563
-0.873683 0.668884 -0.584868
-0.871147 0.671863 -0.586559
-0.868203 0.674515 -0.587953
-0.867415 0.679580 -0.591151
-0.862718 0.680553 -0.591165
-0.862259 0.686219 -0.594729
-0.863354 0.693747 -0.599665
-1.005485 0.874981 -0.734710
-0.994085 0.870465 -0.730080
-1.004219 0.890805 -0.744247
-0.994366 0.888209 -0.740991
-0.994578 0.897459 -0.746647
-0.995436 0.907675 -0.752977
-0.981444 0.900203 -0.745966
-0.961933 0.885845 -0.733797
-0.956650 0.888685 -0.734519
-0.952193 0.892593 -0.736015
-0.951978 0.901897 -0.741505
-0.948560 0.907301 -0.744058
-0.943818 0.911086 -0.745388
-0.938817 0.914577 -0.746484
-0.933870 0.918171 -0.747643
-0.927770 0.920263 -0.747686
-0.925242 0.927148 -0.751246
-0.919859 0.930251 -0.752016
-0.913574 0.932124 -0.751883
-0.912689 0.941478 -0.757213
-0.905721 0.942431 -0.756404
-0.901971 0.947909 -0.758892
-0.898094 0.953259 -0.761282
-0.893801 0.958054 -0.763267
-0.889129 0.962325 -0.764873
-0.883931 0.965835 -0.765934
-0.880286 0.971688 -0.768684
-0.874052 0.973653 -0.768643
-0.867732 0.975449 -0.768493
-0.867831 0.987224 -0.775486
-0.863887 0.992815 -0.778053
-0.858813 0.996648 -0.779371
-0.854057 1.001003 -0.781067
-0.849671 1.005986 -0.783215
-0.844206 1.009218 -0.784130
-0.840047 1.014635 -0.786598
-0.836106 1.020471 -0.789366
-0.831286 1.024857 -0.791116
-0.825560 1.027687 -0.791783
-0.818947 1.028940 -0.791354
-0.817483 1.039338 -0.797341
-0.812158 1.042932 -0.798568
-0.806703 1.046297 -0.799644
-0.803342 1.053551 -0.803437
-0.798869 1.058820 -0.805853
-0.793741 1.062897 -0.807446
-0.789159 1.068054 -0.809796
-0.785511 1.075092 -0.813452
-0.780878 1.080285 -0.815835
-0.776721 1.086493 -0.818924
-0.770112 1.087797 -0.818640
-0.765587 1.093357 -0.821296
-0.760675 1.098183 -0.823451
-0.756498 1.104622 -0.826717
-0.751482 1.109360 -0.828822
-0.745815 1.112733 -0.830001
-0.741056 1.118134 -0.832571
-0.737478 1.126269 -0.837007
-0.732777 1.132005 -0.839809
-0.728275 1.138293 -0.842991
-0.723668 1.144447 -0.846083
-0.719361 1.151424 -0.849735
-0.714268 1.156636 -0.852194
-0.708958 1.161401 -0.854356
-0.703368 1.165539 -0.856099
-0.698143 1.170659 -0.858509
-0.692831 1.175641 -0.860830
-0.687804 1.181457 -0.863714
-0.682833 1.187538 -0.866779
-0.677441 1.192606 -0.869167
-0.671721 1.196869 -0.871020
-0.666218 1.201811 -0.873331
-0.660871 1.207290 -0.876004
-0.655986 1.214227 -0.879651
-0.650498 1.219557 -0.882229
-0.644808 1.224400 -0.884485
-0.639267 1.229801 -0.887115
-0.633785 1.235512 -0.889952
-0.628089 1.240685 -0.892436
-0.622292 1.245655 -0.894786
-0.616534 1.250873 -0.897305
-0.611877 1.259917 -0.902352
-0.606250 1.265932 -0.905398
-0.600537 1.271814 -0.908357
-0.594584 1.277011 -0.910866
-0.588714 1.282652 -0.913670
-0.582440 1.286959 -0.915599
-0.576736 1.293547 -0.919029
-0.571511 1.302217 -0.923824
-0.565650 1.308677 -0.927168
-0.559716 1.315068 -0.930469
-0.553227 1.319367 -0.932403
-0.546596 1.323189 -0.934029
-0.542886 1.339919 -0.944078
-0.536461 1.345226 -0.946671
-0.529287 1.347283 -0.947152
-0.522596 1.351653 -0.949143
-0.516759 1.360330 -0.953935
-0.511317 1.371393 -0.960276
-0.504968 1.378345 -0.963945
-0.497944 1.382053 -0.965514
-0.492079 1.392226 -0.971271
-0.485584 1.399410 -0.975093
-0.479440 1.409015 -0.980480
-0.472633 1.415195 -0.983654
-0.465643 1.420568 -0.986310
-0.458882 1.427719 -0.990116
-0.452953 1.440861 -0.997778
-0.445110 1.441650 -0.997490
-0.438076 1.448242 -1.000941
-0.431497 1.458704 -1.006879
-0.425260 1.472657 -1.015054
-0.411013 1.422192 -0.981931
-0.389319 1.437895 -0.989791
-0.386921 1.492326 -1.023856
-0.376461 1.467826 -1.007480
-0.353880 1.485523 -1.016654
-0.344397 1.466157 -1.003638
-0.323032 1.510220 -1.029657
-0.298073 1.499668 -1.021035
-0.275107 1.556570 -1.055225
-0.241589 1.619222 -1.092432
-0.215891 1.577251 -1.064290
-0.053001 1.180708 -0.807334
-0.047765 1.172266 -0.801902
-0.041819 1.168551 -0.799427
-0.037608 1.155058 -0.790856
-0.031286 1.154131 -0.790127
-0.024967 1.153217 -0.789408
-0.019116 1.149879 -0.787178
-0.012358 1.151337 -0.787936
-0.006368 1.148904 -0.786267
0.003709 1.166290 -0.796943
0.010150 1.165723 -0.796424
0.016164 1.163268 -0.794724
0.021767 1.159137 -0.791973
0.028099 1.158423 -0.791339
0.035814 1.163667 -0.794401
0.045406 1.176509 -0.802173
0.051659 1.175343 -0.801214
0.057079 1.171028 -0.798280
0.064555 1.174972 -0.800460
0.070994 1.174941 -0.800148
0.076981 1.173367 -0.798855
0.081790 1.167709 -0.795003
0.087455 1.165487 -0.793258
0.095271 1.171057 -0.796318
0.104797 1.182489 -0.802975
0.112434 1.187320 -0.805505
0.117914 1.185024 -0.803588
0.122909 1.181434 -0.800839
0.129605 1.183643 -0.801641
0.138710 1.193620 -0.807201
0.148156 1.204583 -0.813321
0.153686 1.203457 -0.811942
0.162056 1.211181 -0.815975
0.167745 1.210957 -0.815073
0.174822 1.215066 -0.816795
0.181770 1.218946 -0.818333
0.189689 1.225758 -0.821625
0.195384 1.226374 -0.821077
0.202343 1.230756 -0.822794
0.206680 1.228064 -0.820150
0.211980 1.228313 -0.819270
0.203039 1.190470 -0.795164
-0.901169 0.650600 -0.579267
-0.897384 0.651436 -0.579725
-0.895330 0.654062 -0.581544
-0.894018 0.657530 -0.583978
-0.891139 0.659543 -0.585230
-0.887755 0.661140 -0.586113
-0.885611 0.664091 -0.588008
-0.883484 0.667168 -0.589955
-0.878334 0.667226 -0.589503
-0.874665 0.668891 -0.590260
-0.872819 0.672563 -0.592532
-0.872058 0.677506 -0.595741
-0.867758 0.678796 -0.596068
-0.863398 0.680096 -0.596359
-0.859921 0.682429 -0.597407
-0.860043 0.688811 -0.601538
-0.993192 0.843168 -0.719675
-0.992971 0.850888 -0.724543
-0.984879 0.849880 -0.722646
-0.994120 0.868708 -0.735924
-0.984529 0.874824 -0.738120
-0.990581 0.890782 -0.748992
-0.972712 0.887665 -0.743907
-0.961618 0.883432 -0.739310
-0.956948 0.886989 -0.740598
-0.955909 0.895113 -0.745306
-0.953100 0.901170 -0.748418
-0.948771 0.905404 -0.750130
-0.943837 0.908923 -0.751284
-0.938378 0.911801 -0.751941
-0.933887 0.915968 -0.753549
-0.930819 0.922067 -0.756581
-0.925815 0.925659 -0.757731
-0.921092 0.929655 -0.759174
-0.916940 0.934466 -0.761211
-0.912018 0.938256 -0.762486
-0.907244 0.942276 -0.763928
-0.902220 0.945964 -0.765123
-0.899777 0.953370 -0.769043
-0.894930 0.957385 -0.770472
-0.889769 0.960958 -0.771580
-0.886038 0.966664 -0.774245
-0.880225 0.969293 -0.774671
-0.877955 0.977295 -0.779004
-0.869572 0.975998 -0.776597
-0.869060 0.986846 -0.782986
-0.864234 0.991072 -0.784586
-0.858743 0.994256 -0.785442
-0.855393 1.000889 -0.788785
-0.849234 1.003009 -0.788893
-0.844718 1.007815 -0.790936
-0.840406 1.012994 -0.793250
-0.837235 1.020153 -0.796981
-0.832584 1.024863 -0.798969
-0.826398 1.026939 -0.799094
-0.822699 1.033360 -0.802312
-0.817937 1.037963 -0.804246
-0.812495 1.041373 -0.805344
-0.808514 1.047458 -0.808339
-0.804183 1.052967 -0.810932
-0.799521 1.057916 -0.813136
-0.794009 1.061295 -0.814246
-0.789314 1.066255 -0.816472
-0.785638 1.073253 -0.820129
-0.780782 1.078022 -0.822232
-0.775525 1.082036 -0.823816
-0.771413 1.088405 -0.827046
-0.766027 1.092242 -0.828520
-0.761830 1.098590 -0.831743
-0.757892 1.105585 -0.835417
-0.751638 1.107723 -0.835735
-0.746332 1.111907 -0.837476
-0.742128 1.118568 -0.840931
-0.737633 1.124694 -0.844020
-0.733643 1.132070 -0.847970
-0.729168 1.138466 -0.851249
-0.723895 1.143105 -0.853325
-0.719046 1.148818 -0.856141
-0.714273 1.154812 -0.859153
-0.708956 1.159580 -0.861332
-0.703506 1.164090 -0.863338
-0.697712 1.167795 -0.864803
-0.692899 1.174067 -0.868017
-0.687644 1.179308 -0.870535
-0.683083 1.186493 -0.874373
-0.677731 1.191704 -0.876875
-0.672433 1.197163 -0.879547
-0.666712 1.201554 -0.881502
-0.661129 1.206411 -0.883775
-0.656179 1.213196 -0.887351
-0.650691 1.218563 -0.889974
-0.644577 1.222173 -0.891418
-0.639104 1.227797 -0.894219
-0.633680 1.233706 -0.897213
-0.628107 1.239293 -0.899994
-0.622590 1.245198 -0.902989
-0.617386 1.252288 -0.906778
-0.611584 1.257581 -0.909367
-0.606567 1.265695 -0.913839
-0.600701 1.271102 -0.916506
-0.594537 1.275594 -0.918568
-0.588922 1.282201 -0.922037
-0.583294 1.288971 -0.925616
-0.577700 1.296089 -0.929426
-0.571546 1.301275 -0.931956
-0.565253 1.306067 -0.934228
-0.560060 1.315480 -0.939557
-0.554051 1.321867 -0.942884
-0.549315 1.333923 -0.949952
-0.543679 1.342564 -0.954763
-0.536789 1.345939 -0.956106
-0.529616 1.348106 -0.956660
-0.523261 1.354174 -0.959784
-0.516754 1.359755 -0.962589
-0.511585 1.372257 -0.969935
-0.505090 1.378585 -0.973230
-0.498063 1.382381 -0.974870
-0.491293 1.387734 -0.977532
-0.486740 1.405824 -0.988518
-0.479946 1.411968 -0.991695
-0.472750 1.416026 -0.993515
-0.465647 1.420855 -0.995842
-0.458618 1.426415 -0.998649
-0.452295 1.437018 -1.004739
-0.445159 1.442700 -1.007629
-0.438793 1.454310 -1.014371
-0.431050 1.456434 -1.014957
-0.423531 1.460413 -1.016754
-0.414622 1.453261 -1.011348
-0.404102 1.431503 -0.996508
-0.358422 1.447259 -1.002373
-0.335023 1.451014 -1.002762
-0.296285 1.467917 -1.010423
-0.036574 1.154681 -0.798106
-0.031105 1.148980 -0.794360
-0.024936 1.147360 -0.793186
-0.018688 1.146234 -0.792324
-0.013449 1.140054 -0.788276
-0.007725 1.136608 -0.785949
0.000675 1.146179 -0.791812
0.008348 1.151878 -0.795228
0.015569 1.155261 -0.797178
0.021736 1.153849 -0.796101
0.027449 1.150598 -0.793855
0.034093 1.151499 -0.794209
0.040431 1.151175 -0.793777
0.048936 1.159689 -0.798881
0.057597 1.168553 -0.804182
0.064776 1.171432 -0.805701
0.073488 1.180118 -0.810839
0.078382 1.174458 -0.806950
0.082602 1.166727 -0.801739
0.087181 1.160739 -0.797598
0.093521 1.161299 -0.797531
0.100316 1.163588 -0.798516
0.103250 1.152976 -0.791398
0.111772 1.161443 -0.796180
0.120012 1.168913 -0.800297
0.128338 1.176641 -0.804532
0.135978 1.182186 -0.807362
0.142495 1.184304 -0.808014
0.151333 1.193700 -0.813155
0.156475 1.191925 -0.811302
